-2.9739 -4.6835 3.6995 4.0000 85.0000
-2.9724 -4.6182 3.6625 5.0000 71.0000
-2.9327 -4.4960 3.5802 5.0000 91.0000
-2.9464 -4.4570 3.5636 4.0000 80.0000
-2.9784 -4.4458 3.5691 5.0000 98.0000
-2.9995 -4.4185 3.5619 4.0000 84.0000
-3.0091 -4.3746 3.5415 5.0000 73.0000
-3.0487 -4.3745 3.5564 5.0000 61.0000
-3.0784 -4.3598 3.5597 4.0000 73.0000
-3.1172 -4.3578 3.5735 3.0000 137.0000
-3.2081 -4.4269 3.6459 4.0000 114.0000
-3.2238 -4.3917 3.6332 3.0000 178.0000
-3.2646 -4.3906 3.6487 4.0000 68.0000
-3.2990 -4.3804 3.6570 5.0000 67.0000
-3.3592 -4.4038 3.6935 6.0000 83.0000
-3.4729 -4.4952 3.7874 5.0000 91.0000
-3.5266 -4.5072 3.8156 5.0000 95.0000
-3.5682 -4.5031 3.8305 5.0000 97.0000
-3.5953 -4.4805 3.8300 4.0000 126.0000
-3.6180 -4.4525 3.8250 4.0000 69.0000
-3.6378 -4.4212 3.8173 5.0000 58.0000
-3.6713 -4.4065 3.8239 5.0000 91.0000
-3.7084 -4.3960 3.8344 4.0000 86.0000
-3.7803 -4.4257 3.8803 2.0000 46.0000
-3.8707 -4.4755 3.9444 2.0000 184.0000
-3.9162 -4.4724 3.9626 2.0000 274.0000
-4.3110 -4.8620 4.3296 4.0000 180.0000
-4.3318 -4.8256 4.3207 3.0000 206.0000
-3.9872 -4.3878 3.9521 3.0000 169.0000
-4.0237 -4.3737 3.9615 4.0000 79.0000
-4.0692 -4.3690 3.9797 6.0000 64.0000
-4.0994 -4.3476 3.9830 6.0000 69.0000
-4.1162 -4.3121 3.9737 6.0000 80.0000
-4.1141 -4.2574 3.9466 6.0000 76.0000
-4.0900 -4.1809 3.8990 6.0000 48.0000
-4.0798 -4.1197 3.8653 5.0000 108.0000
-4.0861 -4.0757 3.8476 5.0000 104.0000
-4.1592 -4.0979 3.8924 5.0000 64.0000
-4.1926 -4.0805 3.9002 5.0000 74.0000
-4.3775 -4.2082 4.0472 4.0000 106.0000
-4.3718 -4.1514 4.0184 5.0000 99.0000
-4.3637 -4.0932 3.9880 5.0000 112.0000
-4.3569 -4.0369 3.9593 5.0000 73.0000
-4.4924 -4.1113 4.0588 4.0000 137.0000
-4.5187 -4.0848 4.0599 4.0000 114.0000
-4.5593 -4.0708 4.0737 4.0000 117.0000
-4.7749 -4.2107 4.2422 5.0000 91.0000
-4.8221 -4.2000 4.2610 5.0000 71.0000
-4.8882 -4.2051 4.2964 6.0000 69.0000
-4.9425 -4.1992 4.3213 6.0000 69.0000
-4.9803 -4.1790 4.3318 5.0000 58.0000
-5.0148 -4.1558 4.3395 4.0000 48.0000
-5.0403 -4.1250 4.3395 4.0000 38.0000
-5.0765 -4.1029 4.3489 3.0000 51.0000
-5.1016 -4.0716 4.3489 3.0000 41.0000
-5.2090 -4.1052 4.4185 2.0000 62.0000
-5.2334 -4.0726 4.4180 1.0000 44.0000
-5.2848 -4.0607 4.4401 1.0000 42.0000
-5.3282 -4.0423 4.4556 1.0000 43.0000
-16.0197 0.3233 10.6460 4.0000 41.0000
-16.0066 0.4213 10.6388 8.0000 49.0000
-19.7237 0.6414 13.1070 5.0000 48.0000
-15.4806 0.5975 10.2939 3.0000 73.0000
-16.1244 0.7217 10.7239 2.0000 96.0000
-15.7026 0.7993 10.4470 3.0000 72.0000
-15.6966 0.8955 10.4465 3.0000 45.0000
-17.4657 1.1045 11.6258 5.0000 55.0000
-15.6936 1.0887 10.4525 2.0000 36.0000
-15.4905 1.1701 10.3221 2.0000 59.0000
-17.1700 1.4035 11.4446 4.0000 53.0000
-17.1760 1.5102 11.4545 3.0000 72.0000
-14.6258 1.3757 9.7623 2.0000 61.0000
-14.5806 1.4618 9.7379 4.0000 60.0000
-14.4868 1.5422 9.6816 3.0000 66.0000
-14.5227 1.6362 9.7120 2.0000 66.0000
-14.5223 1.7265 9.7186 3.0000 63.0000
-14.4304 1.8054 9.6644 2.0000 66.0000
-14.1315 1.8560 9.4721 1.0000 57.0000
-14.0249 1.9296 9.4086 4.0000 87.0000
-14.2231 2.0460 9.5495 1.0000 71.0000
-15.0097 2.2535 10.0856 1.0000 65.0000
-14.1673 2.2157 9.5296 1.0000 68.0000
-14.0860 2.2916 9.4843 2.0000 64.0000
-13.3721 0.7484 8.6883 4.0000 41.0000
-13.2005 0.8201 8.5802 6.0000 80.0000
-13.2413 0.9042 8.6101 7.0000 47.0000
-13.2506 0.9866 8.6199 4.0000 63.0000
-13.2460 1.0680 8.6210 1.0000 74.0000
-12.9874 1.1274 8.4574 1.0000 72.0000
-12.8992 1.1995 8.4047 3.0000 82.0000
-12.8272 1.2722 8.3629 7.0000 52.0000
-12.8785 1.3572 8.4015 3.0000 53.0000
-14.7396 1.6450 9.6191 7.0000 75.0000
-12.8558 1.5145 8.3982 5.0000 76.0000
-12.8596 1.5950 8.4069 4.0000 71.0000
-12.8546 1.6746 8.4102 1.0000 71.0000
-14.0427 1.9172 9.1931 1.0000 69.0000
-14.0016 1.9991 9.1741 4.0000 73.0000
-13.8770 2.0683 9.1007 3.0000 47.0000
-13.8001 2.1435 9.0589 3.0000 59.0000
-13.7884 2.2284 9.0600 5.0000 60.0000
-13.7074 2.3017 9.0160 2.0000 66.0000
-13.7749 2.4000 9.0698 4.0000 59.0000
-13.7913 2.4902 9.0904 4.0000 89.0000
-13.8459 2.5878 9.1366 3.0000 65.0000
-13.7696 2.6611 9.0969 3.0000 49.0000
-13.7258 2.7401 9.0790 4.0000 66.0000
-13.9267 2.8692 9.2230 4.0000 57.0000
-13.6789 2.9057 9.0708 4.0000 64.0000
-13.9749 3.0584 9.2789 4.0000 61.0000
-13.9501 3.1428 9.2751 4.0000 55.0000
-13.9952 3.2433 9.3181 5.0000 65.0000
-13.9766 3.3295 9.3191 5.0000 115.0000
-13.9486 3.4134 9.3143 1.0000 74.0000
-13.9038 3.4930 9.2985 6.0000 65.0000
-15.1925 3.9162 10.1743 7.0000 53.0000
-15.1682 4.0093 10.1743 7.0000 42.0000
-13.1994 3.5755 8.8709 3.0000 54.0000
-14.4966 4.0227 9.7571 2.0000 69.0000
-13.7538 3.9075 9.2740 2.0000 46.0000
-13.5852 3.9499 9.1768 2.0000 44.0000
-13.4215 3.9917 9.0828 5.0000 55.0000
-16.0039 4.8672 10.8464 3.0000 105.0000
-13.9359 4.3316 9.4653 1.0000 71.0000
-13.8467 4.3972 9.4229 4.0000 59.0000
-9.0912 2.9480 6.2059 1.0000 71.0000
-13.7853 4.5647 9.4186 2.0000 98.0000
-18.5352 6.2646 12.6828 3.0000 81.0000
-15.9623 5.5041 10.9480 9.0000 59.0000
-15.9758 5.6187 10.9806 8.0000 93.0000
-18.5961 6.6690 12.8062 3.0000 71.0000
-18.6582 6.8208 12.8774 2.0000 91.0000
-15.0460 5.6049 10.4118 3.0000 65.0000
-14.9203 5.6625 10.3487 2.0000 58.0000
-14.8871 5.8599 10.3748 2.0000 86.0000
-14.6927 5.8878 10.2645 3.0000 48.0000
-14.6011 5.9553 10.2259 4.0000 94.0000
-14.0092 5.8143 9.8369 4.0000 100.0000
-14.4612 6.1063 10.1798 3.0000 53.0000
-12.0739 5.1855 8.5248 4.0000 68.0000
-11.9934 5.2383 8.4906 7.0000 58.0000
-11.9887 5.3241 8.5101 4.0000 56.0000
-11.9795 5.4082 8.5270 3.0000 76.0000
-11.9720 5.4935 8.5455 6.0000 72.0000
-11.9883 5.5903 8.5813 5.0000 92.0000
-11.9856 5.6789 8.6041 2.0000 77.0000
-11.9551 5.7545 8.6074 2.0000 86.0000
-11.9497 5.8425 8.6291 1.0000 78.0000
-12.7362 6.3243 9.2235 3.0000 95.0000
-8.1907 4.1294 5.9571 1.0000 112.0000
-14.2217 7.2810 10.3607 2.0000 121.0000
-14.2952 7.4297 10.4471 2.0000 68.0000
-12.0857 6.3756 8.8638 1.0000 72.0000
-9.6647 5.1742 7.1154 3.0000 53.0000
-8.0358 4.3655 5.9391 3.0000 104.0000
-7.9935 4.4062 5.9277 4.0000 59.0000
-9.5137 5.3208 7.0752 3.0000 64.0000
-9.4049 5.3360 7.0187 3.0000 77.0000
-10.1861 5.8623 7.6267 4.0000 68.0000
-8.0685 4.7094 6.0668 1.0000 92.0000
-8.0648 4.7738 6.0858 4.0000 66.0000
-8.1555 4.8953 6.1766 2.0000 77.0000
-7.9611 4.8453 6.0522 1.0000 81.0000
-7.8634 4.8522 6.0005 2.0000 83.0000
-7.7324 4.8371 5.9234 3.0000 53.0000
-7.6990 4.8822 5.9207 1.0000 36.0000
-11.9185 7.6618 9.1904 2.0000 48.0000
-11.9191 7.7660 9.2273 2.0000 47.0000
-8.1080 5.3534 6.3086 2.0000 99.0000
-7.9243 5.3022 6.1912 3.0000 72.0000
-11.8762 8.0534 9.3072 2.0000 61.0000
-11.8045 8.1109 9.2898 4.0000 47.0000
-11.7634 8.1894 9.2969 3.0000 87.0000
-6.7011 4.7256 5.3274 8.0000 62.0000
-6.6446 4.7471 5.3056 12.0000 79.0000
-6.6174 4.7893 5.3073 15.0000 64.0000
-6.5899 4.8313 5.3089 14.0000 55.0000
-6.5871 4.8917 5.3306 5.0000 60.0000
-7.3399 5.5210 5.9647 4.0000 105.0000
-8.1872 6.2377 6.6819 4.0000 71.0000
-7.2596 5.6015 5.9549 3.0000 51.0000
-7.1900 5.6185 5.9261 10.0000 52.0000
-7.1528 5.6604 5.9239 14.0000 80.0000
-7.1205 5.7063 5.9261 13.0000 67.0000
-7.1082 5.7684 5.9451 7.0000 67.0000
-7.3152 6.0113 6.1483 1.0000 60.0000
-9.8392 8.1877 8.3048 6.0000 72.0000
-9.6392 8.1219 8.1782 5.0000 49.0000
-7.2953 6.2234 6.2266 1.0000 47.0000
-7.3268 6.3284 6.2863 1.0000 52.0000
-7.8932 6.9028 6.8068 2.0000 75.0000
-7.8872 6.9834 6.8383 4.0000 77.0000
-9.4374 8.4603 8.2233 1.0000 63.0000
-9.8179 8.9108 8.6014 5.0000 89.0000
-7.4303 6.8269 6.5509 1.0000 57.0000
-7.3956 6.8792 6.5574 1.0000 56.0000
-7.5910 7.1484 6.7688 1.0000 41.0000
-7.4832 7.1340 6.7117 2.0000 36.0000
-6.9760 6.8157 6.3325 2.0000 54.0000
-6.9460 6.8702 6.3434 2.0000 77.0000
-7.1552 7.1646 6.5737 1.0000 50.0000
-8.0896 8.3018 7.5224 4.0000 49.0000
-6.8731 7.1402 6.4346 1.0000 46.0000
-6.8160 7.2570 6.4640 1.0000 52.0000
-6.6047 7.1190 6.3053 1.0000 58.0000
-6.3652 6.9458 6.1179 1.0000 56.0000
-6.5822 7.3620 6.4118 4.0000 57.0000
-6.5319 7.3966 6.4069 5.0000 60.0000
-6.4455 7.3897 6.3667 2.0000 65.0000
-6.2056 7.2033 6.1739 3.0000 30.0000
-6.1830 7.2668 6.1956 1.0000 56.0000
-6.9073 8.2200 6.9693 5.0000 59.0000
-6.8953 8.3088 7.0084 1.0000 39.0000
-6.9607 8.4931 7.1274 1.0000 53.0000
-6.7006 8.5978 7.0752 1.0000 53.0000
-2.6589 7.7443 5.3198 1.0000 30.0000
-2.6236 7.7970 5.3447 2.0000 31.0000
-2.5734 7.8058 5.3399 10.0000 60.0000
-2.5246 7.8191 5.3382 11.0000 71.0000
-2.4832 7.8552 5.3524 10.0000 68.0000
-2.4518 7.9249 5.3893 7.0000 61.0000
-1.3830 4.5672 3.1090 7.0000 79.0000
-1.3547 4.5748 3.1084 8.0000 66.0000
-1.3234 4.5717 3.1008 6.0000 71.0000
-1.2955 4.5805 3.1014 1.0000 41.0000
-1.2551 6.5390 4.3298 1.0000 67.0000
-1.2129 6.5350 4.3222 1.0000 42.0000
-1.1735 6.5465 4.3249 3.0000 62.0000
-0.9506 5.4955 3.6300 3.0000 66.0000
-0.9123 5.4739 3.6121 8.0000 81.0000
-0.8647 5.3923 3.5550 5.0000 71.0000
-0.8305 5.3901 3.5502 5.0000 137.0000
-0.8191 5.5421 3.6463 7.0000 66.0000
-0.7784 5.4996 3.6154 3.0000 63.0000
-0.7328 5.4169 3.5583 4.0000 54.0000
-0.6913 5.3572 3.5165 8.0000 90.0000
-0.6580 5.3580 3.5143 9.0000 87.0000
-0.7378 6.3309 4.1456 7.0000 78.0000
-0.6957 6.3061 4.1266 9.0000 62.0000
-0.6588 6.3270 4.1375 7.0000 68.0000
-0.6328 6.4621 4.2228 3.0000 114.0000
-0.7512 8.1939 5.3458 6.0000 86.0000
-0.7066 8.2653 5.3893 6.0000 60.0000
-0.6615 8.3406 5.4355 4.0000 92.0000
-0.6349 8.6820 5.6544 3.0000 76.0000
-0.5826 8.6999 5.6637 7.0000 118.0000
-0.4958 8.1528 5.3067 6.0000 161.0000
-0.4342 7.9419 5.1682 7.0000 118.0000
-0.3943 8.1281 5.2872 11.0000 85.0000
-0.3427 8.0892 5.2605 10.0000 90.0000
-0.2884 7.9620 5.1769 8.0000 45.0000
-0.2401 7.9812 5.1883 5.0000 158.0000
-0.1449 6.0388 3.9299 3.0000 165.0000
-0.1081 6.0546 3.9397 10.0000 64.0000
-0.0708 6.0443 3.9327 9.0000 70.0000
-0.0337 6.0379 3.9283 11.0000 86.0000
0.0033 6.0413 3.9305 11.0000 72.0000
0.0404 6.0362 3.9272 8.0000 89.0000
0.0913 7.1027 4.6178 4.0000 73.0000
0.1321 6.9560 4.5232 9.0000 78.0000
0.1748 6.9551 4.5232 9.0000 89.0000
0.2591 8.2771 5.3801 6.0000 120.0000
0.3107 8.2947 5.3926 8.0000 72.0000
0.3618 8.2977 5.3958 5.0000 106.0000
0.4768 9.5798 6.2282 4.0000 131.0000
0.5332 9.5340 6.2005 8.0000 123.0000
0.5915 9.5280 6.1988 7.0000 92.0000
0.7512 11.0042 7.1589 9.0000 69.0000
0.8146 10.9449 7.1236 10.0000 65.0000
0.8790 10.9046 7.1008 9.0000 74.0000
0.9450 10.8898 7.0948 10.0000 50.0000
1.0087 10.8495 7.0725 8.0000 64.0000
0.9412 9.4939 6.1950 2.0000 87.0000
1.2469 11.8332 7.7212 1.0000 34.0000
1.3815 10.6069 6.9432 1.0000 43.0000
1.4587 10.6872 7.0013 5.0000 39.0000
1.5232 10.6706 6.9964 10.0000 66.0000
1.5922 10.6851 7.0122 9.0000 60.0000
1.6602 10.6909 7.0225 9.0000 62.0000
1.7283 10.6963 7.0328 9.0000 39.0000
1.7999 10.7211 7.0562 10.0000 60.0000
1.8690 10.7289 7.0687 12.0000 53.0000
1.9486 10.7940 7.1192 8.0000 40.0000
2.0309 10.8677 7.1757 1.0000 42.0000
1.8897 9.7802 6.4672 1.0000 46.0000
4.5185 9.6906 6.9405 2.0000 50.0000
4.5797 9.6665 6.9432 2.0000 67.0000
5.5261 11.4808 8.2667 7.0000 54.0000
5.1270 10.4867 7.5751 5.0000 48.0000
5.6229 11.3242 8.2032 5.0000 76.0000
5.7089 11.3225 8.2271 4.0000 120.0000
5.3080 10.3688 7.5593 7.0000 98.0000
5.4021 10.3949 7.6022 9.0000 67.0000
5.5097 10.4447 7.6631 6.0000 86.0000
5.6228 10.5025 7.7305 7.0000 49.0000
4.9700 9.1482 6.7585 7.0000 55.0000
5.0925 9.2381 6.8476 4.0000 62.0000
5.8090 10.3862 7.7223 5.0000 65.0000
5.9642 10.5118 7.8424 5.0000 70.0000
5.1411 8.9332 6.6911 2.0000 95.0000
5.1983 8.9059 6.6944 5.0000 177.0000
5.2062 8.7951 6.6351 4.0000 55.0000
5.4490 9.0775 6.8726 7.0000 95.0000
5.8241 9.5688 7.2703 6.0000 128.0000
5.9568 9.6529 7.3616 7.0000 86.0000
6.0231 9.6275 7.3702 8.0000 70.0000
6.0618 9.5585 7.3458 4.0000 63.0000
5.9314 9.2274 7.1198 4.0000 84.0000
5.8830 9.0297 6.9954 9.0000 65.0000
5.9887 9.0698 7.0546 5.0000 118.0000
3.9629 5.9234 4.6330 8.0000 75.0000
3.9563 5.8358 4.5836 9.0000 37.0000
3.9688 5.7775 4.5569 10.0000 59.0000
4.0008 5.7482 4.5531 11.0000 88.0000
4.0379 5.7263 4.5553 11.0000 84.0000
4.0725 5.7007 4.5548 11.0000 63.0000
4.1335 5.7117 4.5836 8.0000 46.0000
4.2027 5.7329 4.6210 3.0000 88.0000
6.9338 9.3360 7.5468 4.0000 80.0000
7.4372 9.8863 8.0271 5.0000 95.0000
7.5832 9.9527 8.1184 3.0000 116.0000
7.2583 9.4062 7.7098 3.0000 103.0000
7.0021 8.9600 7.3800 4.0000 104.0000
7.4321 9.3908 7.7712 5.0000 111.0000
7.2281 9.0188 7.5006 5.0000 63.0000
7.3055 9.0017 7.5235 4.0000 118.0000
7.4555 9.0721 7.6202 2.0000 84.0000
7.4305 8.9294 7.5387 2.0000 83.0000
9.1428 10.8506 9.2034 6.0000 91.0000
7.4583 8.7424 7.4577 1.0000 131.0000
8.3450 9.6608 8.2825 3.0000 88.0000
8.1504 9.3194 8.0331 4.0000 85.0000
8.2118 9.2742 8.0374 6.0000 89.0000
8.4025 9.3730 8.1673 8.0000 66.0000
8.3973 9.2523 8.1070 4.0000 67.0000
8.4204 9.1641 8.0749 4.0000 80.0000
8.5645 9.2069 8.1586 7.0000 109.0000
8.6070 9.1396 8.1456 3.0000 128.0000
5.6276 5.9036 5.2991 8.0000 76.0000
5.6509 5.8556 5.2872 13.0000 46.0000
5.6902 5.8245 5.2904 12.0000 67.0000
5.7577 5.8217 5.3198 9.0000 73.0000
5.8736 5.8663 5.3931 7.0000 58.0000
5.9728 5.8926 5.4507 2.0000 89.0000
9.1413 8.9074 8.2809 4.0000 111.0000
7.8861 7.5909 7.1046 3.0000 116.0000
7.9349 7.5447 7.1067 3.0000 44.0000
8.0986 7.6062 7.2111 2.0000 82.0000
8.8604 8.2197 7.8424 2.0000 43.0000
8.0237 7.2626 7.0247 1.0000 57.0000
8.9620 8.0121 7.8006 2.0000 74.0000
9.2854 8.1992 8.0374 4.0000 79.0000
9.3165 8.1256 8.0211 4.0000 65.0000
9.3496 8.0540 8.0070 5.0000 76.0000
9.2774 7.8931 7.9038 7.0000 85.0000
9.6200 8.0834 8.1526 6.0000 87.0000
9.6346 7.9953 8.1233 3.0000 88.0000
10.2932 8.4356 8.6335 3.0000 90.0000
8.5768 6.9417 7.1616 2.0000 113.0000
9.7670 7.8061 8.1124 5.0000 100.0000
9.8819 7.7990 8.1678 7.0000 87.0000
9.9435 7.7491 8.1793 7.0000 115.0000
8.3779 6.4471 6.8622 3.0000 75.0000
8.5363 6.4860 6.9590 4.0000 111.0000
8.2543 6.1922 6.6987 2.0000 73.0000
9.4506 6.9992 7.6316 1.0000 69.0000
8.7044 6.3644 6.9992 2.0000 86.0000
8.7202 6.2942 6.9807 7.0000 45.0000
8.7648 6.2449 6.9856 6.0000 36.0000
8.9856 6.3195 7.1301 5.0000 45.0000
9.1208 6.3312 7.2062 5.0000 56.0000
9.3956 6.4369 7.3914 4.0000 40.0000
9.4391 6.3820 7.3947 4.0000 60.0000
9.5102 6.3453 7.4197 5.0000 38.0000
9.6892 6.3792 7.5284 5.0000 62.0000
9.7022 6.3027 7.5083 4.0000 45.0000
9.7272 6.2344 7.4979 3.0000 118.0000
9.2111 5.8243 7.0736 1.0000 56.0000
11.8432 7.3868 9.0540 2.0000 50.0000
11.8876 7.3136 9.0535 1.0000 44.0000
11.9208 7.2335 9.0448 4.0000 48.0000
8.2165 4.9176 6.2179 3.0000 59.0000
8.2220 4.8526 6.1994 3.0000 63.0000
11.1296 6.4763 8.3542 4.0000 79.0000
11.2317 6.4438 8.4009 4.0000 74.0000
11.3032 6.3930 8.4248 3.0000 63.0000
11.3554 6.3309 8.4346 3.0000 56.0000
12.2483 6.7304 9.0654 3.0000 80.0000
8.3315 4.5123 6.1527 1.0000 51.0000
8.4687 4.5196 6.2331 1.0000 48.0000
12.4891 6.5663 9.1523 3.0000 44.0000
12.5485 6.4995 9.1665 5.0000 74.0000
9.1988 4.6937 6.7041 2.0000 33.0000
9.2275 4.6371 6.7041 1.0000 46.0000
9.2618 4.5834 6.7085 1.0000 67.0000
11.8838 5.7900 8.5759 4.0000 60.0000
11.9032 5.7094 8.5645 6.0000 67.0000
11.9517 5.6427 8.5742 4.0000 53.0000
8.7380 4.0605 6.2564 1.0000 61.0000
12.2285 5.5909 8.7226 4.0000 49.0000
12.3008 5.5329 8.7497 6.0000 47.0000
11.9691 5.2957 8.4911 4.0000 65.0000
12.0306 5.2349 8.5118 6.0000 51.0000
8.7944 3.7631 6.2113 2.0000 51.0000
8.7832 3.6948 6.1874 3.0000 34.0000
8.8096 3.6424 6.1902 3.0000 48.0000
8.8676 3.6028 6.2151 1.0000 41.0000
12.7688 5.0961 8.9182 3.0000 40.0000
12.7998 5.0177 8.9182 8.0000 42.0000
12.8946 4.9638 8.9627 7.0000 45.0000
12.3044 4.6501 8.5335 3.0000 79.0000
12.4067 4.6020 8.5846 6.0000 61.0000
12.3771 4.5048 8.5449 4.0000 45.0000
14.1875 5.0651 9.7701 7.0000 50.0000
14.1636 4.9589 9.7326 6.0000 70.0000
14.1811 4.8675 9.7239 10.0000 50.0000
14.1860 4.7721 9.7071 9.0000 57.0000
13.5221 4.4567 9.2349 5.0000 122.0000
13.6235 4.3976 9.2855 7.0000 48.0000
12.6912 4.0110 8.6346 4.0000 72.0000
12.5592 3.8847 8.5286 4.0000 81.0000
12.2180 3.6972 8.2819 5.0000 56.0000
12.2855 3.6355 8.3124 4.0000 58.0000
12.4802 3.6099 8.4286 4.0000 128.0000
12.5384 3.5435 8.4531 5.0000 131.0000
12.6134 3.4813 8.4889 5.0000 116.0000
12.4610 3.3571 8.3727 4.0000 85.0000
12.2727 3.2258 8.2330 5.0000 81.0000
13.7285 3.5183 9.1925 4.0000 74.0000
13.3824 3.3423 8.9475 2.0000 101.0000
13.3929 3.2577 8.9410 2.0000 71.0000
13.9380 3.2998 9.2903 5.0000 71.0000
14.8677 3.4236 9.8945 2.0000 123.0000
12.4372 2.7839 8.2689 5.0000 78.0000
12.0717 2.6245 8.0157 4.0000 98.0000
11.8453 2.4993 7.8554 8.0000 50.0000
11.8472 2.4239 7.8467 7.0000 50.0000
13.2190 2.6200 8.7421 3.0000 47.0000
13.1227 2.5173 8.6682 4.0000 67.0000
11.9682 2.2199 7.8984 3.0000 70.0000
11.9535 2.1414 7.8799 1.0000 116.0000
14.2241 2.4579 9.3626 2.0000 78.0000
13.2824 2.2114 8.7351 2.0000 71.0000
12.1509 1.9466 7.9847 4.0000 61.0000
12.1137 1.8645 7.9527 2.0000 117.0000
13.3325 1.9683 8.7427 3.0000 104.0000
14.9570 2.1143 9.7967 4.0000 86.0000
14.6652 1.9813 9.5979 5.0000 86.0000
14.6612 1.8893 9.5875 4.0000 72.0000
13.5984 1.6677 8.8872 7.0000 54.0000
13.6184 1.5854 8.8937 6.0000 72.0000
14.6852 1.6182 9.5821 6.0000 61.0000
12.8995 1.3415 8.4140 3.0000 66.0000
12.8975 1.2614 8.4074 3.0000 49.0000
13.3096 1.2192 8.6704 5.0000 69.0000
13.4356 1.1477 8.7476 5.0000 64.0000
12.9897 1.0294 8.4536 4.0000 101.0000
12.9714 0.9479 8.4379 5.0000 77.0000
12.9561 0.8669 8.4243 7.0000 65.0000
13.0902 0.7952 8.5080 6.0000 81.0000
11.1995 0.6116 7.2795 4.0000 43.0000
11.1586 0.5407 7.2507 8.0000 46.0000
11.1416 0.4714 7.2377 8.0000 43.0000
11.1107 0.4018 7.2159 10.0000 64.0000
11.1062 0.3334 7.2116 9.0000 56.0000
11.1081 0.2653 7.2116 8.0000 46.0000
11.3017 0.2005 7.3360 9.0000 45.0000
11.3271 0.1314 7.3518 8.0000 59.0000
11.2966 0.0618 7.3317 5.0000 27.0000
11.2850 -0.0075 7.3241 8.0000 49.0000
11.2780 -0.0767 7.3197 9.0000 49.0000
11.2161 -0.1451 7.2801 6.0000 53.0000
11.1596 -0.2129 7.2442 3.0000 42.0000
11.2420 -0.2835 7.2985 1.0000 29.0000
8.8859 -0.7709 5.7930 1.0000 41.0000
8.8774 -0.8800 5.7941 1.0000 41.0000
8.7708 -0.9783 5.7321 1.0000 49.0000
8.7563 -1.0311 5.7267 1.0000 33.0000
8.7373 -1.0832 5.7186 1.0000 36.0000
7.1297 -0.9281 4.6737 2.0000 41.0000
7.0831 -0.9662 4.6471 4.0000 56.0000
6.9690 -0.9943 4.5765 7.0000 57.0000
6.9254 -1.0314 4.5520 7.0000 90.0000
6.8899 -1.0694 4.5330 8.0000 75.0000
6.8981 -1.1140 4.5428 7.0000 56.0000
6.9276 -1.1625 4.5667 6.0000 52.0000
6.8905 -1.1998 4.5472 5.0000 56.0000
6.8070 -1.2283 4.4972 4.0000 80.0000
6.8150 -1.2730 4.5075 2.0000 148.0000
6.7956 -1.3125 4.4999 5.0000 81.0000
6.6812 -1.3330 4.4298 5.0000 57.0000
6.6655 -1.3724 4.4249 5.0000 84.0000
6.6093 -1.4032 4.3934 8.0000 61.0000
6.6867 -1.4626 4.4504 5.0000 69.0000
6.6718 -1.5023 4.4466 4.0000 97.0000
6.6821 -1.5477 4.4597 4.0000 107.0000
6.8105 -1.6216 4.5515 2.0000 117.0000
9.0796 -2.2214 6.0701 4.0000 122.0000
9.1497 -2.2981 6.1260 3.0000 116.0000
10.5328 -2.7146 7.0600 4.0000 108.0000
10.3772 -2.7424 6.9671 3.0000 76.0000
10.2500 -2.7762 6.8932 3.0000 112.0000
10.1348 -2.8119 6.8275 6.0000 99.0000
10.6762 -3.0328 7.2034 4.0000 133.0000
7.6401 -2.2207 5.1698 2.0000 69.0000
9.2091 -2.7384 6.2385 5.0000 54.0000
9.1873 -2.7934 6.2353 4.0000 87.0000
9.2438 -2.8727 6.2852 3.0000 75.0000
7.2481 -2.3010 4.9421 2.0000 63.0000
7.2282 -2.3436 4.9383 3.0000 76.0000
7.2121 -2.3874 4.9373 4.0000 84.0000
7.2514 -2.4499 4.9742 3.0000 70.0000
7.2577 -2.5017 4.9889 4.0000 66.0000
8.7730 -3.0847 6.0391 7.0000 86.0000
8.7760 -3.1464 6.0543 6.0000 96.0000
8.7503 -3.1979 6.0500 7.0000 77.0000
8.7029 -3.2413 6.0310 7.0000 52.0000
8.5369 -3.2392 5.9299 7.0000 63.0000
8.4738 -3.2749 5.9000 7.0000 58.0000
8.4082 -3.3090 5.8685 6.0000 80.0000
8.3792 -3.3571 5.8625 5.0000 57.0000
8.5030 -3.4674 5.9636 4.0000 81.0000
8.4800 -3.5189 5.9625 3.0000 191.0000
8.3562 -3.5277 5.8908 7.0000 65.0000
8.3097 -3.5683 5.8734 7.0000 71.0000
8.2715 -3.6122 5.8620 5.0000 72.0000
8.3382 -3.7024 5.9250 7.0000 59.0000
8.3505 -3.7694 5.9500 5.0000 64.0000
8.2914 -3.8041 5.9245 6.0000 49.0000
8.2382 -3.8411 5.9033 6.0000 93.0000
8.1470 -3.8595 5.8549 5.0000 100.0000
8.1209 -3.9084 5.8533 6.0000 65.0000
8.0929 -3.9563 5.8506 7.0000 55.0000
8.0693 -4.0062 5.8511 8.0000 55.0000
8.0445 -4.0557 5.8511 7.0000 85.0000
8.0188 -4.1046 5.8506 7.0000 88.0000
7.9986 -4.1564 5.8544 8.0000 64.0000
7.9767 -4.2074 5.8571 8.0000 72.0000
7.9537 -4.2578 5.8593 7.0000 50.0000
7.9281 -4.3069 5.8598 7.0000 75.0000
7.9030 -4.3563 5.8609 7.0000 90.0000
7.8879 -4.4113 5.8696 5.0000 112.0000
7.8899 -4.4762 5.8913 5.0000 97.0000
7.8979 -4.5450 5.9180 3.0000 106.0000
8.5115 -4.9680 6.3988 4.0000 97.0000
8.3732 -4.9564 6.3178 3.0000 147.0000
7.7834 -4.6719 5.8957 4.0000 123.0000
7.7517 -4.7178 5.8935 3.0000 94.0000
7.7169 -4.7618 5.8892 2.0000 141.0000
7.1538 -4.4750 5.4817 2.0000 150.0000
7.1943 -4.5620 5.5338 3.0000 129.0000
7.0885 -4.5561 5.4741 2.0000 156.0000
7.3459 -4.7856 5.6946 2.0000 100.0000
7.6121 -5.0259 5.9239 5.0000 114.0000
7.6020 -5.0865 5.9402 6.0000 81.0000
7.8451 -5.3192 6.1548 2.0000 108.0000
8.5021 -5.8413 6.6965 2.0000 188.0000
7.2914 -5.0754 5.7702 6.0000 57.0000
7.1875 -5.0687 5.7126 9.0000 60.0000
7.1610 -5.1162 5.7164 7.0000 41.0000
7.1444 -5.1708 5.7283 7.0000 56.0000
7.1308 -5.2280 5.7430 8.0000 57.0000
7.1357 -5.2992 5.7729 8.0000 50.0000
8.0120 -6.0268 6.5091 5.0000 94.0000
7.8814 -6.0046 6.4330 4.0000 71.0000
8.6486 -6.6736 7.0904 2.0000 174.0000
8.1868 -6.3977 6.7449 2.0000 149.0000
6.4471 -5.1018 5.3415 1.0000 124.0000
6.4144 -5.1402 5.3404 2.0000 122.0000
7.9992 -6.4917 6.6878 4.0000 130.0000
6.5493 -5.3817 5.5067 2.0000 167.0000
7.5182 -6.2559 6.3504 4.0000 171.0000
7.4508 -6.2775 6.3260 6.0000 91.0000
7.3866 -6.3013 6.3043 6.0000 86.0000
7.1826 -6.2038 6.1630 4.0000 84.0000
7.0528 -6.1676 6.0842 5.0000 71.0000
7.0174 -6.2130 6.0864 5.0000 98.0000
7.3441 -6.5833 6.4037 4.0000 103.0000
5.9908 -5.4364 5.2562 4.0000 67.0000
5.9480 -5.4646 5.2480 6.0000 49.0000
5.9261 -5.5118 5.2584 6.0000 66.0000
5.9166 -5.5711 5.2801 5.0000 96.0000
5.9279 -5.6508 5.3208 3.0000 176.0000
6.1449 -5.9302 5.5474 6.0000 68.0000
6.0736 -5.9337 5.5159 6.0000 70.0000
6.0687 -6.0022 5.5447 9.0000 72.0000
6.0591 -6.0666 5.5697 10.0000 64.0000
6.0371 -6.1193 5.5838 11.0000 68.0000
5.9988 -6.1556 5.5833 7.0000 69.0000
4.9847 -5.1778 4.6721 11.0000 77.0000
4.9476 -5.2028 4.6672 12.0000 96.0000
4.9300 -5.2484 4.6808 7.0000 78.0000
5.8842 -6.3422 5.6197 9.0000 57.0000
5.8565 -6.3905 5.6305 9.0000 84.0000
5.8358 -6.4469 5.6485 7.0000 106.0000
5.8123 -6.5007 5.6642 6.0000 93.0000
6.4457 -7.2991 6.3227 5.0000 50.0000
5.7327 -6.5722 5.6648 3.0000 96.0000
6.4751 -7.5163 6.4412 3.0000 117.0000
5.4373 -6.3901 5.4507 2.0000 78.0000
5.4169 -6.4459 5.4697 3.0000 73.0000
5.3676 -6.4673 5.4599 3.0000 53.0000
5.2911 -6.4553 5.4224 3.0000 85.0000
5.1568 -6.3709 5.3252 4.0000 75.0000
5.5652 -6.9625 5.7892 3.0000 116.0000
4.9150 -6.2267 5.1546 3.0000 69.0000
4.9830 -6.3932 5.2665 6.0000 95.0000
4.9646 -6.4509 5.2888 6.0000 72.0000
4.9316 -6.4900 5.2958 7.0000 59.0000
4.9027 -6.5349 5.3078 6.0000 67.0000
4.8650 -6.5682 5.3105 5.0000 118.0000
4.7191 -6.4536 5.1948 2.0000 85.0000
4.6328 -6.4177 5.1432 4.0000 123.0000
4.5860 -6.4358 5.1350 5.0000 61.0000
4.5392 -6.4535 5.1269 5.0000 67.0000
4.5588 -6.5667 5.1942 2.0000 134.0000
4.7002 -6.8599 5.4023 5.0000 104.0000
4.5987 -6.8009 5.3339 5.0000 166.0000
4.5933 -6.8835 5.3763 6.0000 111.0000
4.4914 -6.8211 5.3062 7.0000 77.0000
4.5414 -6.9901 5.4154 6.0000 75.0000
4.6089 -7.1903 5.5480 7.0000 87.0000
4.4665 -7.0630 5.4290 5.0000 123.0000
4.4461 -7.1273 5.4572 6.0000 89.0000
4.4696 -7.2639 5.5403 6.0000 116.0000
4.4210 -7.2847 5.5355 8.0000 81.0000
4.3694 -7.3002 5.5268 5.0000 120.0000
4.1590 -7.0463 5.3160 6.0000 119.0000
3.9996 -6.8721 5.1665 4.0000 136.0000
3.9197 -6.8310 5.1176 3.0000 100.0000
3.9025 -6.8988 5.1502 2.0000 87.0000
4.2492 -7.6207 5.6675 6.0000 116.0000
4.2707 -7.7710 5.7593 4.0000 66.0000
4.2253 -7.8014 5.7626 4.0000 72.0000
3.9281 -7.3598 5.4197 5.0000 164.0000
3.8785 -7.3756 5.4137 5.0000 152.0000
3.7587 -7.2554 5.3089 3.0000 51.0000
3.6966 -7.2439 5.2839 6.0000 99.0000
3.6709 -7.3040 5.3111 5.0000 162.0000
3.6212 -7.3166 5.3040 2.0000 58.0000
3.9100 -8.0240 5.7973 5.0000 99.0000
3.6102 -7.5255 5.4224 4.0000 196.0000
3.5568 -7.5323 5.4116 4.0000 109.0000
3.5307 -7.5974 5.4425 3.0000 114.0000
3.5716 -7.8106 5.5789 4.0000 156.0000
3.7343 -8.3009 5.9114 4.0000 164.0000
3.4775 -7.8584 5.5822 4.0000 223.0000
3.4359 -7.8950 5.5930 2.0000 77.0000
3.6667 -8.5690 6.0527 2.0000 109.0000
3.4852 -8.2848 5.8375 4.0000 89.0000
3.5498 -8.5854 6.0331 4.0000 65.0000
3.4455 -8.4802 5.9446 5.0000 141.0000
3.3629 -8.4248 5.8913 5.0000 61.0000
3.3139 -8.4523 5.8962 4.0000 42.0000
3.6679 -9.5271 6.6275 4.0000 56.0000
3.2438 -8.5819 5.9582 3.0000 53.0000
3.2057 -8.6410 5.9853 5.0000 57.0000
3.1718 -8.7133 6.0217 2.0000 42.0000
3.1191 -8.7350 6.0234 1.0000 33.0000
2.8717 -8.3644 5.7441 1.0000 40.0000
1.7590 -5.2260 3.5893 1.0000 42.0000
2.7727 -8.4110 5.7522 1.0000 42.0000
2.7007 -8.3648 5.7093 1.0000 94.0000
1.3408 -4.2392 2.8982 3.0000 78.0000
1.3029 -4.2089 2.8721 8.0000 76.0000
1.2627 -4.1694 2.8400 7.0000 59.0000
1.2231 -4.1296 2.8080 8.0000 79.0000
1.1874 -4.1015 2.7841 8.0000 81.0000
1.1556 -4.0853 2.7683 9.0000 35.0000
1.1267 -4.0785 2.7591 8.0000 61.0000
1.0984 -4.0732 2.7509 9.0000 94.0000
1.0743 -4.0831 2.7531 11.0000 88.0000
1.0467 -4.0799 2.7466 13.0000 96.0000
1.0204 -4.0813 2.7433 13.0000 111.0000
0.9944 -4.0834 2.7406 11.0000 108.0000
0.9689 -4.0878 2.7395 12.0000 100.0000
0.9438 -4.0937 2.7395 11.0000 107.0000
0.9179 -4.0961 2.7374 11.0000 109.0000
0.8919 -4.0976 2.7346 11.0000 94.0000
0.8671 -4.1046 2.7357 10.0000 85.0000
0.8432 -4.1165 2.7401 9.0000 83.0000
0.8189 -4.1265 2.7433 9.0000 91.0000
0.7964 -4.1463 2.7531 10.0000 97.0000
0.7730 -4.1618 2.7602 10.0000 80.0000
0.7480 -4.1698 2.7623 11.0000 66.0000
0.7217 -4.1702 2.7596 13.0000 67.0000
0.6950 -4.1679 2.7553 14.0000 78.0000
0.6679 -4.1630 2.7493 14.0000 112.0000
0.6423 -4.1662 2.7488 14.0000 112.0000
0.6173 -4.1742 2.7515 14.0000 105.0000
0.5927 -4.1854 2.7564 14.0000 81.0000
0.5678 -4.1947 2.7602 14.0000 86.0000
0.5444 -4.2165 2.7721 10.0000 81.0000
0.5207 -4.2372 2.7835 9.0000 93.0000
0.4951 -4.2437 2.7857 7.0000 87.0000
0.4732 -4.2850 2.8107 2.0000 78.0000
1.0048 -9.6579 6.3048 9.0000 86.0000
0.9458 -9.6664 6.3064 9.0000 80.0000
0.8888 -9.6980 6.3233 7.0000 71.0000
0.7755 -9.0725 5.9136 2.0000 118.0000
0.7079 -8.9273 5.8164 1.0000 63.0000
0.6494 -8.8804 5.7832 2.0000 52.0000
0.6085 -9.0878 5.9152 3.0000 56.0000
0.5520 -9.0796 5.9076 6.0000 63.0000
0.4913 -8.9914 5.8484 7.0000 92.0000
0.4336 -8.9415 5.8142 7.0000 85.0000
0.3766 -8.8928 5.7810 7.0000 74.0000
0.3184 -8.7943 5.7158 3.0000 102.0000
0.2869 -9.5471 6.2021 7.0000 93.0000
0.2279 -9.5319 6.1912 6.0000 69.0000
0.1722 -9.6917 6.2939 6.0000 105.0000
0.1085 -9.3291 6.0587 4.0000 123.0000
0.0502 -9.1248 5.9261 4.0000 182.0000
-0.0054 -8.5708 5.5675 5.0000 91.0000
-0.0580 -8.5790 5.5729 5.0000 57.0000
-0.1126 -8.7296 5.6707 5.0000 114.0000
-0.1709 -8.9722 5.8283 5.0000 116.0000
-0.2295 -9.1128 5.9201 6.0000 95.0000
-0.2905 -9.2723 6.0244 6.0000 119.0000
-0.3489 -9.3123 6.0516 6.0000 132.0000
-0.4099 -9.3981 6.1087 6.0000 91.0000
-0.4692 -9.4281 6.1298 2.0000 54.0000
-0.6663 -8.9549 5.8321 1.0000 48.0000
-0.7219 -8.9590 5.8375 3.0000 40.0000
-0.7746 -8.9285 5.8207 5.0000 43.0000
-0.8292 -8.9219 5.8196 6.0000 51.0000
-0.8870 -8.9476 5.8397 7.0000 57.0000
-0.9524 -9.0421 5.9049 7.0000 76.0000
-1.0148 -9.0979 5.9451 8.0000 52.0000
-1.0768 -9.1440 5.9793 7.0000 59.0000
-1.1425 -9.2147 6.0299 8.0000 58.0000
-1.2008 -9.2208 6.0386 9.0000 76.0000
-1.2454 -9.1260 5.9815 8.0000 56.0000
-1.2901 -9.0392 5.9299 7.0000 58.0000
-1.3436 -9.0187 5.9218 8.0000 66.0000
-1.4091 -9.0758 5.9647 7.0000 70.0000
-1.4820 -9.1730 6.0342 7.0000 83.0000
-1.5400 -9.1745 6.0413 7.0000 89.0000
-1.5973 -9.1707 6.0451 6.0000 85.0000
-1.6158 -8.9517 5.9076 6.0000 82.0000
-1.6589 -8.8789 5.8663 5.0000 73.0000
-1.7158 -8.8809 5.8745 3.0000 89.0000
-1.4433 -7.2336 4.7944 1.0000 165.0000
-1.9694 -9.5614 6.3385 4.0000 174.0000
-2.0505 -9.6551 6.4086 7.0000 150.0000
-1.8337 -8.3818 5.5735 4.0000 129.0000
-1.8257 -8.1067 5.3985 4.0000 123.0000
-1.5229 -6.5750 4.3885 4.0000 110.0000
-1.5671 -6.5819 4.3994 3.0000 104.0000
-1.6544 -6.7637 4.5270 2.0000 119.0000
-1.8397 -7.3259 4.9090 1.0000 199.0000
-2.2177 -8.6062 5.7723 3.0000 159.0000
-1.7065 -6.4594 4.3445 3.0000 99.0000
-1.7463 -6.4497 4.3450 5.0000 87.0000
-1.7854 -6.4372 4.3440 6.0000 120.0000
-1.7686 -6.2283 4.2108 4.0000 86.0000
-1.7487 -6.0174 4.0761 2.0000 90.0000
-1.8385 -6.1844 4.1962 1.0000 118.0000
-1.8588 -6.1152 4.1570 1.0000 91.0000
-1.9873 -6.3962 4.3554 1.0000 81.0000
-2.0267 -6.3847 4.3559 1.0000 99.0000
-2.0778 -6.4089 4.3809 2.0000 85.0000
-2.0746 -6.2677 4.2934 2.0000 90.0000
-2.0958 -6.2040 4.2586 3.0000 92.0000
-2.1168 -6.1418 4.2250 3.0000 90.0000
-2.1458 -6.1041 4.2081 5.0000 88.0000
-2.1923 -6.1162 4.2255 4.0000 139.0000
-2.2382 -6.1255 4.2413 4.0000 132.0000
-2.4850 -6.6733 4.6292 2.0000 228.0000
-2.2557 -5.9460 4.1364 3.0000 163.0000
-2.3203 -6.0049 4.1869 4.0000 128.0000
-2.3623 -6.0038 4.1962 5.0000 116.0000
-2.3710 -5.9191 4.1473 3.0000 95.0000
-2.4700 -6.0584 4.2548 4.0000 196.0000
-2.5081 -6.0454 4.2565 4.0000 170.0000
-2.7062 -6.4112 4.5243 4.0000 139.0000
-2.8220 -6.5726 4.6498 3.0000 255.0000
-2.5376 -5.8120 4.1250 5.0000 85.0000
-2.5671 -5.7826 4.1152 4.0000 152.0000
-2.5521 -5.6550 4.0359 3.0000 90.0000
-2.5815 -5.6278 4.0277 2.0000 72.0000
-3.0529 -6.5484 4.6966 3.0000 75.0000
-3.0459 -6.4302 4.6254 4.0000 65.0000
-2.7742 -5.7654 4.1614 5.0000 202.0000
-2.8398 -5.8101 4.2059 6.0000 151.0000
-2.8414 -5.7241 4.1565 5.0000 190.0000
-2.8580 -5.6699 4.1299 3.0000 222.0000
-2.8893 -5.6455 4.1250 3.0000 305.0000
-2.8844 -5.5517 4.0696 5.0000 167.0000
-2.8608 -5.4247 3.9897 6.0000 137.0000
-2.8052 -5.2413 3.8680 5.0000 128.0000
-2.8169 -5.1864 3.8403 5.0000 102.0000
-2.8227 -5.1219 3.8055 7.0000 71.0000
-2.8348 -5.0701 3.7800 6.0000 96.0000
-2.8572 -5.0373 3.7686 6.0000 94.0000
-2.8876 -5.0189 3.7680 5.0000 90.0000
-2.9200 -5.0040 3.7702 6.0000 75.0000
-2.9507 -4.9860 3.7702 6.0000 83.0000
-2.9726 -4.9534 3.7593 5.0000 116.0000
-2.8994 -4.7651 3.6306 5.0000 103.0000
-2.8863 -4.6787 3.5784 6.0000 65.0000
-2.9190 -4.6673 3.5833 6.0000 74.0000
-2.9651 -4.6769 3.6045 6.0000 120.0000
-3.0251 -4.7074 3.6420 3.0000 97.0000
-3.1038 -4.7654 3.7012 5.0000 126.0000
-3.0576 -4.6321 3.6126 6.0000 79.0000
-3.0832 -4.6090 3.6094 5.0000 79.0000
-3.1100 -4.5879 3.6078 5.0000 71.0000
-3.1133 -4.5328 3.5795 6.0000 72.0000
-3.1118 -4.4716 3.5464 7.0000 89.0000
-3.1470 -4.4634 3.5550 6.0000 58.0000
-3.2221 -4.5109 3.6083 4.0000 131.0000
-3.3349 -4.6087 3.7023 5.0000 151.0000
-3.3711 -4.5990 3.7110 6.0000 72.0000
-3.3982 -4.5769 3.7099 5.0000 66.0000
-3.4222 -4.5506 3.7055 7.0000 84.0000
-3.4582 -4.5402 3.7142 7.0000 58.0000
-3.5040 -4.5421 3.7333 7.0000 55.0000
-3.5447 -4.5371 3.7468 6.0000 101.0000
-3.6454 -4.6074 3.8229 7.0000 83.0000
-3.6789 -4.5915 3.8283 6.0000 79.0000
-3.8345 -4.7259 3.9593 4.0000 105.0000
-3.8336 -4.6660 3.9289 6.0000 99.0000
-3.7805 -4.5443 3.8463 5.0000 91.0000
-3.8586 -4.5807 3.8968 7.0000 80.0000
-3.9024 -4.5754 3.9126 7.0000 55.0000
-3.9826 -4.6118 3.9642 5.0000 44.0000
-4.0274 -4.6062 3.9805 1.0000 66.0000
-4.3105 -4.8692 4.2293 2.0000 88.0000
-4.3795 -4.8865 4.2673 3.0000 74.0000
-4.3852 -4.8328 4.2440 5.0000 99.0000
-4.3079 -4.6896 4.1418 6.0000 108.0000
-4.2760 -4.5979 4.0842 6.0000 86.0000
-4.1954 -4.4561 3.9816 7.0000 83.0000
-4.1983 -4.4047 3.9587 8.0000 60.0000
-4.2159 -4.3692 3.9500 7.0000 70.0000
-4.2491 -4.3499 3.9560 7.0000 77.0000
-4.2922 -4.3404 3.9712 7.0000 74.0000
-4.3402 -4.3354 3.9908 7.0000 96.0000
-4.3924 -4.3340 4.0142 8.0000 81.0000
-4.4820 -4.3685 4.0712 8.0000 78.0000
-4.5499 -4.3805 4.1081 7.0000 63.0000
-4.7185 -4.4872 4.2347 6.0000 68.0000
-4.7533 -4.4651 4.2413 6.0000 80.0000
-4.8021 -4.4558 4.2603 7.0000 106.0000
-4.8461 -4.4416 4.2749 7.0000 99.0000
-4.8726 -4.4112 4.2744 6.0000 69.0000
-4.8927 -4.3751 4.2684 6.0000 66.0000
-4.9018 -4.3294 4.2532 8.0000 66.0000
-4.8992 -4.2739 4.2282 6.0000 67.0000
-4.9317 -4.2492 4.2337 6.0000 63.0000
-4.9602 -4.2210 4.2358 4.0000 53.0000
-4.9867 -4.1911 4.2364 4.0000 57.0000
-5.0394 -4.1829 4.2592 3.0000 49.0000
-5.0799 -4.1641 4.2717 4.0000 49.0000
-5.0812 -4.1134 4.2516 3.0000 49.0000
-5.1136 -4.0879 4.2576 1.0000 52.0000
-5.2210 -4.1214 4.3255 1.0000 30.0000
-16.1285 0.2094 10.4596 3.0000 32.0000
-16.0212 0.3063 10.3911 11.0000 41.0000
-16.0291 0.4048 10.3976 10.0000 36.0000
-16.0313 0.5033 10.4009 8.0000 44.0000
-15.9726 0.5996 10.3650 8.0000 38.0000
-15.9569 0.6971 10.3574 8.0000 53.0000
-15.8986 0.7923 10.3227 5.0000 62.0000
-13.4941 -0.2272 8.5102 5.0000 70.0000
-13.3581 -0.1429 8.4240 9.0000 81.0000
-13.3088 -0.0607 8.3925 9.0000 63.0000
-13.3149 0.0210 8.3963 7.0000 55.0000
-13.3509 0.1030 8.4192 6.0000 62.0000
-13.4660 0.1865 8.4921 5.0000 68.0000
-13.1303 0.2625 8.2818 7.0000 73.0000
-13.4906 0.3524 8.5097 6.0000 68.0000
-13.6337 0.4399 8.6013 9.0000 45.0000
-13.6206 0.5231 8.5949 9.0000 92.0000
-13.5275 0.6027 8.5384 5.0000 108.0000
-13.5117 0.6851 8.5310 6.0000 73.0000
-18.6134 1.0578 11.7479 5.0000 61.0000
-13.3080 0.8387 8.4085 3.0000 44.0000
-13.3034 0.9204 8.4090 4.0000 65.0000
-13.3000 1.0022 8.4106 5.0000 96.0000
-13.2709 1.0819 8.3963 5.0000 81.0000
-13.2066 1.1583 8.3601 7.0000 83.0000
-13.0998 1.2300 8.2972 4.0000 73.0000
-13.0339 1.3045 8.2605 6.0000 72.0000
-13.0088 1.3827 8.2498 5.0000 59.0000
-12.9749 1.4596 8.2339 1.0000 120.0000
-12.9556 1.5380 8.2275 3.0000 83.0000
-12.9921 1.6232 8.2568 1.0000 117.0000
-13.0751 1.7151 8.3159 6.0000 83.0000
-13.1037 1.8008 8.3409 7.0000 75.0000
-14.5109 2.0848 9.2423 4.0000 85.0000
-14.9424 2.2404 9.5250 6.0000 74.0000
-14.9259 2.3316 9.5234 4.0000 79.0000
-14.3958 2.3394 9.1949 4.0000 74.0000
-14.3761 2.4269 9.1917 6.0000 79.0000
-14.4385 2.5286 9.2412 5.0000 48.0000
-13.6265 2.4728 8.7322 3.0000 60.0000
-13.8606 2.6032 8.8920 5.0000 66.0000
-13.8510 2.6895 8.8962 7.0000 63.0000
-13.8592 2.7794 8.9122 5.0000 56.0000
-13.8070 2.8572 8.8898 8.0000 51.0000
-14.0898 3.0059 9.0831 2.0000 76.0000
-14.1033 3.0994 9.1039 3.0000 54.0000
-14.2186 3.2163 9.1907 2.0000 82.0000
-15.0470 3.5008 9.7385 2.0000 73.0000
-14.3732 3.4372 9.3168 6.0000 64.0000
-14.3025 3.5132 9.2849 3.0000 73.0000
-16.7940 4.2344 10.9152 5.0000 56.0000
-16.6611 4.3098 10.8460 4.0000 60.0000
-15.2500 4.0449 9.9451 8.0000 45.0000
-15.2355 4.1413 9.9520 8.0000 58.0000
-15.1747 4.2249 9.9291 3.0000 80.0000
-13.6132 3.8805 8.9250 3.0000 74.0000
-13.5826 3.9620 8.9207 2.0000 76.0000
-13.6586 4.0753 8.9867 2.0000 85.0000
-16.0891 4.9079 10.6016 5.0000 67.0000
-16.0829 5.0141 10.6176 5.0000 75.0000
-14.8057 4.7159 9.7950 2.0000 94.0000
-14.7225 4.7891 9.7593 3.0000 77.0000
-16.0666 5.3354 10.6698 3.0000 111.0000
-16.1073 5.4589 10.7187 10.0000 82.0000
-16.1431 5.5816 10.7651 5.0000 59.0000
-16.0926 5.6750 10.7544 4.0000 82.0000
-16.0169 5.7590 10.7273 4.0000 76.0000
-15.9518 5.8464 10.7076 4.0000 79.0000
-15.1012 5.6401 10.1608 4.0000 63.0000
-15.0197 5.7149 10.1293 5.0000 47.0000
-14.9622 5.7984 10.1144 4.0000 77.0000
-15.6319 6.1684 10.5915 2.0000 105.0000
-15.5914 6.2632 10.5899 2.0000 56.0000
-15.5958 6.3764 10.6192 4.0000 62.0000
-14.5450 6.0513 9.9302 1.0000 100.0000
-14.5224 6.1467 9.9403 2.0000 83.0000
-12.1682 5.2388 8.3542 4.0000 63.0000
-13.2781 5.8133 9.1385 3.0000 69.0000
-12.1525 5.4098 8.3883 5.0000 61.0000
-12.1391 5.4933 8.4021 4.0000 83.0000
-13.2957 6.1151 9.2263 4.0000 74.0000
-13.1360 6.1396 9.1417 2.0000 95.0000
-13.1103 6.2259 9.1502 2.0000 103.0000
-13.0520 6.2966 9.1364 3.0000 75.0000
-8.3770 4.1054 5.8890 2.0000 93.0000
-14.3425 7.1373 10.0979 4.0000 79.0000
-12.2721 6.2015 8.6699 4.0000 75.0000
-12.2330 6.2763 8.6694 3.0000 84.0000
-12.1883 6.3481 8.6651 2.0000 76.0000
-8.1116 4.2888 5.7927 2.0000 83.0000
-8.1016 4.3473 5.8044 6.0000 75.0000
-8.1506 4.4382 5.8587 1.0000 74.0000
-8.0017 4.4210 5.7714 1.0000 74.0000
-7.9773 4.4717 5.7735 1.0000 69.0000
-11.7021 6.6535 8.4884 4.0000 58.0000
-9.5374 5.5007 6.9465 2.0000 55.0000
-9.6437 5.6412 7.0487 5.0000 76.0000
-9.2835 5.5072 6.8107 6.0000 63.0000
-9.2190 5.5458 6.7883 5.0000 101.0000
-7.7784 4.7447 5.7522 5.0000 64.0000
-7.7557 4.7963 5.7570 5.0000 97.0000
-8.2239 5.1558 6.1265 3.0000 59.0000
-8.3650 5.3160 6.2554 5.0000 76.0000
-12.0144 7.7384 9.0102 4.0000 63.0000
-12.0922 7.8938 9.1044 3.0000 98.0000
-12.0555 7.9758 9.1135 5.0000 64.0000
-11.9248 7.9950 9.0517 5.0000 83.0000
-11.8916 8.0789 9.0639 4.0000 72.0000
-11.9304 8.2127 9.1316 6.0000 68.0000
-11.9103 8.3071 9.1550 9.0000 40.0000
-6.7542 4.7735 5.2235 7.0000 77.0000
-6.7021 4.7986 5.2059 14.0000 60.0000
-6.6718 4.8391 5.2054 15.0000 62.0000
-6.6454 4.8825 5.2081 14.0000 101.0000
-6.6466 4.9464 5.2326 1.0000 129.0000
-8.5117 6.4154 6.7255 5.0000 107.0000
-8.1761 6.2416 6.4912 6.0000 57.0000
-7.2898 5.6363 5.8172 9.0000 49.0000
-7.1924 5.6319 5.7671 15.0000 70.0000
-7.1624 5.6796 5.7708 15.0000 48.0000
-7.1439 5.7367 5.7842 13.0000 62.0000
-7.1427 5.8081 5.8118 3.0000 52.0000
-7.7356 6.3694 6.3240 2.0000 73.0000
-7.4136 6.1810 6.0924 2.0000 64.0000
-9.5672 8.0760 7.8963 7.0000 43.0000
-9.5374 8.1516 7.9128 6.0000 53.0000
-7.9419 6.8730 6.6275 2.0000 56.0000
-7.8836 6.9076 6.6142 3.0000 87.0000
-9.8322 8.7217 8.2882 3.0000 51.0000
-9.8043 8.8051 8.3100 3.0000 41.0000
-7.2212 6.9826 6.3395 1.0000 40.0000
-7.2054 7.0534 6.3634 1.0000 42.0000
-8.3490 8.2735 7.4145 1.0000 56.0000
-7.0441 7.1541 6.3363 1.0000 31.0000
-7.1334 7.3343 6.4566 2.0000 57.0000
-7.0590 7.3474 6.4300 3.0000 53.0000
-6.4897 7.0956 6.0695 1.0000 50.0000
-6.4126 7.3664 6.1643 1.0000 69.0000
-6.1266 7.1258 5.9322 4.0000 30.0000
-6.0658 7.1432 5.9157 3.0000 52.0000
-7.0827 8.4449 6.9539 1.0000 66.0000
-7.3656 8.8923 7.2840 2.0000 63.0000
-7.2953 8.9183 7.2686 1.0000 62.0000
-2.5942 7.8962 5.2491 1.0000 47.0000
-2.6136 8.1231 5.3886 2.0000 51.0000
-2.5472 8.0865 5.3539 5.0000 57.0000
-1.4437 4.6853 3.1049 2.0000 81.0000
-1.4071 4.6681 3.0879 10.0000 84.0000
-1.3777 4.6742 3.0863 13.0000 97.0000
-1.3506 4.6883 3.0900 11.0000 90.0000
-1.3271 4.7152 3.1023 9.0000 86.0000
-1.3053 4.7494 3.1193 1.0000 59.0000
-1.2496 5.1607 3.3610 1.0000 55.0000
-1.2235 5.1921 3.3765 3.0000 44.0000
-1.2039 5.2532 3.4111 1.0000 53.0000
-1.1792 5.2943 3.4329 2.0000 79.0000
-1.1476 5.3056 3.4356 1.0000 73.0000
-1.1224 5.3474 3.4580 3.0000 45.0000
-1.0885 5.3492 3.4548 3.0000 67.0000
-1.0650 5.4031 3.4851 1.0000 70.0000
-1.0403 5.4536 3.5133 1.0000 50.0000
-1.0069 5.4607 3.5139 1.0000 61.0000
-0.9774 5.4893 3.5282 8.0000 56.0000
-0.9466 5.5118 3.5389 13.0000 95.0000
-0.9115 5.5100 3.5341 11.0000 75.0000
-0.8767 5.5097 3.5304 3.0000 111.0000
-0.8456 5.5325 3.5415 3.0000 220.0000
-0.8322 5.6775 3.6305 7.0000 97.0000
-0.7874 5.6120 3.5857 11.0000 101.0000
-0.7443 5.5522 3.5447 9.0000 85.0000
-0.7033 5.5029 3.5107 6.0000 118.0000
-0.7788 6.4037 4.0788 10.0000 101.0000
-0.7426 6.4352 4.0958 7.0000 108.0000
-0.8994 8.2336 5.2310 6.0000 144.0000
-0.8841 8.5809 5.4471 8.0000 174.0000
-0.8391 8.6645 5.4966 12.0000 106.0000
-0.7955 8.7757 5.5637 9.0000 91.0000
-0.7399 8.7593 5.5504 8.0000 109.0000
-0.6865 8.7687 5.5536 6.0000 179.0000
-0.7594 10.5247 6.6584 8.0000 139.0000
-0.6961 10.5494 6.6712 9.0000 122.0000
-0.5382 8.9996 5.6920 3.0000 153.0000
-0.4831 9.0044 5.6931 6.0000 103.0000
-0.3739 7.8759 4.9807 9.0000 101.0000
-0.3284 7.9457 5.0233 10.0000 78.0000
-0.2884 8.1963 5.1798 8.0000 143.0000
-0.2084 7.1817 4.5404 3.0000 312.0000
-0.1384 6.0591 3.8333 9.0000 103.0000
-0.1015 6.0767 3.8440 11.0000 70.0000
-0.0650 6.1475 3.8882 11.0000 55.0000
-0.0274 6.1909 3.9153 4.0000 79.0000
0.0124 7.4607 4.7140 7.0000 138.0000
0.0582 7.4622 4.7150 5.0000 87.0000
0.1033 7.4117 4.6836 11.0000 86.0000
0.1484 7.3949 4.6735 5.0000 140.0000
0.2376 9.0760 5.7320 3.0000 182.0000
0.2939 9.0947 5.7448 8.0000 67.0000
0.3500 9.1012 5.7501 8.0000 62.0000
0.4518 10.1314 6.4002 9.0000 84.0000
0.5156 10.1614 6.4209 12.0000 86.0000
0.5779 10.1581 6.4209 10.0000 81.0000
0.6444 10.2202 6.4625 6.0000 94.0000
0.7075 10.2220 6.4662 10.0000 64.0000
0.8426 11.1789 7.0726 9.0000 75.0000
0.9159 11.2325 7.1099 12.0000 74.0000
0.9845 11.2225 7.1072 2.0000 26.0000
1.2136 10.7861 6.8485 3.0000 51.0000
1.2752 10.7398 6.8240 10.0000 59.0000
1.3343 10.6772 6.7894 5.0000 60.0000
1.4078 10.7301 6.8283 4.0000 50.0000
1.4832 10.7908 6.8724 10.0000 65.0000
1.5539 10.8134 6.8927 10.0000 62.0000
1.6207 10.8070 6.8948 9.0000 60.0000
1.6836 10.7751 6.8810 10.0000 55.0000
1.7519 10.7779 6.8895 8.0000 67.0000
1.8170 10.7611 6.8858 9.0000 57.0000
1.8777 10.7198 6.8666 7.0000 65.0000
1.7951 9.8902 6.3437 6.0000 50.0000
1.8481 9.8382 6.3176 2.0000 59.0000
2.0834 10.7283 6.8953 2.0000 57.0000
6.0038 12.8453 8.9399 10.0000 51.0000
6.0465 12.7326 8.8872 6.0000 36.0000
4.6732 9.6859 6.7857 7.0000 84.0000
5.1652 10.5404 7.4043 6.0000 124.0000
5.2411 10.5312 7.4203 8.0000 86.0000
5.6427 11.1660 7.8905 5.0000 87.0000
5.7200 11.1485 7.9027 8.0000 78.0000
5.9399 11.4045 8.1093 6.0000 97.0000
4.8687 9.2087 6.5732 3.0000 85.0000
6.2283 11.6082 8.3074 7.0000 108.0000
6.3026 11.5757 8.3116 5.0000 58.0000
6.3723 11.5346 8.3100 5.0000 83.0000
5.7387 10.2385 7.4038 5.0000 88.0000
5.8876 10.3546 7.5135 5.0000 77.0000
5.2010 9.0174 6.5690 5.0000 71.0000
6.1886 10.5797 7.7307 7.0000 73.0000
5.2711 8.8852 6.5194 4.0000 97.0000
5.3224 8.8476 6.5157 10.0000 63.0000
5.3854 8.8293 6.5264 5.0000 66.0000
5.7920 9.3663 6.9481 7.0000 83.0000
6.0755 9.6914 7.2159 5.0000 52.0000
5.5784 8.7779 6.5631 5.0000 70.0000
5.6349 8.7478 6.5663 9.0000 97.0000
5.7213 8.7634 6.6041 4.0000 128.0000
3.8804 5.8639 4.4440 2.0000 96.0000
3.8979 5.8125 4.4233 14.0000 89.0000
3.9311 5.7850 4.4206 14.0000 62.0000
3.9718 5.7684 4.4264 13.0000 72.0000
4.0096 5.7474 4.4291 14.0000 54.0000
4.0477 5.7269 4.4323 13.0000 65.0000
4.0936 5.7171 4.4440 9.0000 49.0000
4.1669 5.7446 4.4850 4.0000 68.0000
7.6047 10.3520 8.1008 5.0000 88.0000
7.2341 9.7218 7.6434 6.0000 58.0000
7.3415 9.7408 7.6935 6.0000 61.0000
7.3441 9.6208 7.6344 2.0000 140.0000
7.4336 9.6151 7.6658 5.0000 85.0000
7.5780 9.6786 7.7531 7.0000 93.0000
7.7545 9.7799 7.8718 6.0000 65.0000
7.8414 9.7658 7.8990 6.0000 66.0000
8.7896 10.8104 8.7849 4.0000 79.0000
8.0489 9.7760 7.9863 4.0000 104.0000
8.9704 10.7603 8.8329 4.0000 82.0000
9.0510 10.7225 8.8472 3.0000 82.0000
9.1199 10.6706 8.8504 4.0000 67.0000
9.1764 10.6042 8.8419 6.0000 39.0000
8.2764 9.4462 7.9208 3.0000 82.0000
8.3179 9.3769 7.9054 7.0000 80.0000
8.6337 9.6135 8.1487 5.0000 106.0000
6.2311 6.8526 5.8470 1.0000 127.0000
6.4072 6.9600 5.9716 4.0000 115.0000
5.5756 5.9822 5.1649 10.0000 73.0000
5.6023 5.9374 5.1559 14.0000 71.0000
5.6451 5.9097 5.1617 13.0000 65.0000
5.6930 5.8871 5.1724 12.0000 72.0000
5.7385 5.8617 5.1809 10.0000 58.0000
8.9711 9.0532 8.0379 7.0000 75.0000
9.0780 9.0494 8.0837 4.0000 86.0000
7.5744 7.4581 6.7074 4.0000 98.0000
9.2048 8.9532 8.0981 3.0000 140.0000
7.5256 7.2302 6.5855 4.0000 113.0000
7.3531 6.9782 6.3975 2.0000 74.0000
8.6345 8.0944 7.4656 6.0000 85.0000
8.5169 7.8866 7.3224 5.0000 71.0000
8.6457 7.9079 7.3910 3.0000 73.0000
8.8084 7.9580 7.4879 2.0000 65.0000
8.8968 7.9393 7.5215 1.0000 55.0000
9.6724 8.5255 8.1311 3.0000 53.0000
9.4557 8.2320 7.9070 4.0000 69.0000
9.7865 8.4150 8.1396 3.0000 108.0000
9.2728 7.8747 7.6732 6.0000 70.0000
9.3028 7.8024 7.6583 7.0000 64.0000
9.3316 7.7296 7.6429 6.0000 66.0000
10.0006 8.1809 8.1482 5.0000 115.0000
8.0919 6.5366 6.5642 2.0000 48.0000
9.4981 7.5771 7.6636 4.0000 129.0000
9.5511 7.5239 7.6690 4.0000 124.0000
8.3090 6.4630 6.6424 2.0000 84.0000
8.3599 6.4206 6.6515 4.0000 62.0000
10.2558 7.7775 8.1173 5.0000 59.0000
8.3568 6.2567 6.5876 7.0000 65.0000
8.3977 6.2073 6.5897 7.0000 77.0000
8.4575 6.1716 6.6068 2.0000 87.0000
8.8434 6.3705 6.8767 1.0000 53.0000
8.7058 6.1905 6.7404 1.0000 51.0000
8.8690 6.2250 6.8368 1.0000 38.0000
8.9641 6.2100 6.8804 3.0000 56.0000
8.9426 6.1143 6.8352 7.0000 54.0000
9.1659 6.1848 6.9763 8.0000 63.0000
9.3967 6.2570 7.1222 4.0000 52.0000
9.4349 6.1992 7.1222 3.0000 42.0000
9.4344 6.1163 7.0934 5.0000 63.0000
11.6921 7.4789 8.7514 5.0000 68.0000
9.7085 6.1262 7.2420 4.0000 90.0000
9.7710 6.0821 7.2606 8.0000 57.0000
11.7896 7.2390 8.7232 7.0000 74.0000
11.7100 7.0915 8.6321 7.0000 93.0000
11.2562 6.7226 8.2680 9.0000 105.0000
11.3038 6.6573 8.2727 11.0000 47.0000
11.3254 6.5767 8.2589 11.0000 43.0000
11.4023 6.5281 8.2855 10.0000 91.0000
11.4620 6.4693 8.2999 9.0000 91.0000
11.4113 6.3486 8.2349 5.0000 64.0000
11.4456 6.2760 8.2317 5.0000 60.0000
11.5434 6.2379 8.2743 8.0000 78.0000
8.4563 4.5024 6.0472 3.0000 72.0000
11.5681 6.0690 8.2381 6.0000 69.0000
11.6300 6.0108 8.2557 6.0000 67.0000
11.7021 5.9573 8.2807 6.0000 63.0000
11.7884 5.9105 8.3159 1.0000 54.0000
11.8145 5.8332 8.3089 5.0000 53.0000
11.8714 5.7709 8.3239 3.0000 67.0000
11.9020 5.6958 8.3207 5.0000 69.0000
12.0149 5.6594 8.3750 8.0000 62.0000
12.2068 5.6586 8.4841 8.0000 50.0000
12.2852 5.6036 8.5145 6.0000 59.0000
12.2768 5.5091 8.4852 8.0000 95.0000
12.1153 5.3475 8.3510 10.0000 64.0000
12.1106 5.2569 8.3255 9.0000 49.0000
12.1652 5.1921 8.3409 7.0000 63.0000
12.3217 5.1698 8.4261 7.0000 104.0000
12.8282 5.2900 8.7493 11.0000 82.0000
12.8628 5.2121 8.7509 10.0000 54.0000
12.8237 5.1049 8.7030 9.0000 60.0000
12.8942 5.0416 8.7296 8.0000 54.0000
13.0095 4.9948 8.7865 10.0000 55.0000
12.9519 4.8818 8.7274 8.0000 87.0000
12.5172 4.6303 8.4160 7.0000 115.0000
12.3608 4.4864 8.2924 6.0000 88.0000
12.4089 4.4179 8.3063 3.0000 74.0000
12.5740 4.3899 8.3984 6.0000 57.0000
12.7024 4.3475 8.4660 3.0000 70.0000
14.2801 4.7900 9.4952 7.0000 77.0000
14.3100 4.7026 9.4957 5.0000 73.0000
14.2354 4.5815 9.4276 8.0000 79.0000
14.2124 4.4780 9.3940 4.0000 101.0000
12.4399 3.8356 8.2094 7.0000 66.0000
12.5199 3.7763 8.2467 6.0000 71.0000
13.7883 4.0669 9.0634 4.0000 77.0000
12.5547 3.6193 8.2397 7.0000 75.0000
12.7633 3.5948 8.3617 7.0000 64.0000
12.9859 3.5717 8.4926 4.0000 92.0000
12.6503 3.3960 8.2600 5.0000 62.0000
12.4064 3.2490 8.0880 7.0000 88.0000
12.4975 3.1910 8.1343 3.0000 88.0000
12.4248 3.0914 8.0747 9.0000 50.0000
12.5719 3.0462 8.1577 2.0000 117.0000
13.8335 3.2623 8.9612 5.0000 45.0000
12.9664 2.9739 8.3888 5.0000 129.0000
12.6696 2.8240 8.1860 8.0000 82.0000
12.6842 2.7457 8.1844 6.0000 64.0000
11.9826 2.5169 7.7227 6.0000 52.0000
12.0236 2.4486 7.7392 5.0000 95.0000
12.0641 2.3798 7.7558 5.0000 78.0000
12.0760 2.3053 7.7542 7.0000 78.0000
12.4412 2.2960 7.9788 6.0000 77.0000
13.2459 2.3606 8.4841 3.0000 95.0000
15.3039 2.6309 9.7886 6.0000 99.0000
13.2788 2.1988 8.4873 2.0000 121.0000
12.2271 1.9475 7.8090 5.0000 54.0000
13.2513 2.0274 8.4532 2.0000 108.0000
13.2207 1.9398 8.4261 3.0000 87.0000
12.2944 1.7268 7.8303 6.0000 72.0000
12.9399 1.7366 8.2333 3.0000 81.0000
13.7857 1.7642 8.7631 4.0000 88.0000
13.0619 1.5901 8.2978 4.0000 63.0000
13.0705 1.5098 8.2972 6.0000 67.0000
13.0804 1.4297 8.2978 8.0000 71.0000
13.0662 1.3471 8.2834 8.0000 76.0000
13.0110 1.2607 8.2435 4.0000 88.0000
13.5218 1.2266 8.5613 4.0000 75.0000
13.8217 1.1684 8.7461 5.0000 125.0000
13.2455 1.0378 8.3782 4.0000 134.0000
13.6628 0.9862 8.6375 5.0000 119.0000
14.5850 0.9630 9.2152 3.0000 80.0000
14.3186 0.8571 9.0437 5.0000 80.0000
11.2223 0.6024 7.0902 4.0000 82.0000
11.2216 0.5333 7.0875 6.0000 53.0000
11.1765 0.4625 7.0572 9.0000 48.0000
11.1664 0.3934 7.0492 7.0000 60.0000
11.2101 0.3261 7.0753 5.0000 85.0000
10.5222 0.2414 6.6414 4.0000 53.0000
11.2877 0.1898 7.1222 8.0000 71.0000
11.3157 0.1208 7.1392 10.0000 76.0000
11.3112 0.0514 7.1360 9.0000 64.0000
11.2935 -0.0180 7.1248 9.0000 117.0000
10.3375 -0.0801 6.5237 6.0000 66.0000
10.3081 -0.1431 6.5056 5.0000 56.0000
11.1144 -0.2224 7.0135 9.0000 49.0000
11.0866 -0.2899 6.9970 6.0000 60.0000
10.0829 -0.3257 6.3666 5.0000 67.0000
10.9511 -0.4209 6.9145 1.0000 49.0000
10.9534 -0.4883 6.9177 2.0000 57.0000
10.1310 -0.5141 6.4018 3.0000 44.0000
10.1319 -0.5765 6.4044 5.0000 53.0000
10.1019 -0.6370 6.3879 5.0000 44.0000
10.0607 -0.6964 6.3645 1.0000 51.0000
8.9517 -0.8409 5.6766 1.0000 49.0000
9.0651 -0.9077 5.7517 3.0000 54.0000
9.0703 -0.9645 5.7586 3.0000 60.0000
8.9044 -1.0022 5.6574 1.0000 53.0000
8.7998 -1.0451 5.5951 3.0000 70.0000
