-2.5857 6.2452 -1.6904 24.0000 112.0000
-2.5627 6.2986 -1.7009 22.0000 74.0000
-2.5068 6.2711 -1.6889 20.0000 143.0000
-2.4598 6.2647 -1.6830 20.0000 117.0000
-2.3214 6.0202 -1.6116 10.0000 57.0000
-2.3858 6.3025 -1.6852 20.0000 115.0000
-2.3656 6.3670 -1.6989 26.0000 90.0000
-2.3188 6.3605 -1.6932 25.0000 130.0000
-2.2801 6.3755 -1.6934 26.0000 133.0000
-2.2582 6.4387 -1.7068 23.0000 98.0000
-2.1866 6.3590 -1.6815 20.0000 123.0000
-2.1648 6.4237 -1.6954 26.0000 141.0000
-2.1296 6.4498 -1.6989 24.0000 159.0000
-2.0710 6.4037 -1.6830 21.0000 142.0000
-2.0299 6.4108 -1.6815 22.0000 143.0000
-1.9690 6.3537 -1.6628 19.0000 140.0000
-1.9421 6.4055 -1.6735 22.0000 122.0000
-1.9077 6.4340 -1.6780 22.0000 142.0000
-1.8722 6.4596 -1.6817 21.0000 189.0000
-1.8568 6.5567 -1.7046 27.0000 142.0000
-1.8206 6.5829 -1.7086 27.0000 93.0000
-1.7842 6.6089 -1.7126 29.0000 96.0000
-1.7572 6.6713 -1.7262 27.0000 106.0000
-1.7186 6.6913 -1.7287 23.0000 89.0000
-1.6865 6.7374 -1.7382 19.0000 111.0000
-1.6478 6.7590 -1.7412 19.0000 88.0000
-1.6083 6.7774 -1.7434 19.0000 95.0000
-1.5671 6.7890 -1.7439 19.0000 100.0000
-1.5242 6.7929 -1.7424 17.0000 88.0000
-1.4841 6.8097 -1.7444 18.0000 86.0000
-1.4431 6.8224 -1.7454 17.0000 95.0000
-1.4016 6.8331 -1.7459 17.0000 115.0000
-1.3595 6.8406 -1.7456 18.0000 122.0000
-1.3171 6.8469 -1.7451 16.0000 70.0000
-1.2761 6.8606 -1.7466 17.0000 107.0000
-1.2350 6.8740 -1.7481 17.0000 89.0000
-1.1927 6.8805 -1.7479 18.0000 110.0000
-1.1493 6.8810 -1.7461 17.0000 90.0000
-1.1075 6.8908 -1.7469 17.0000 88.0000
-1.0660 6.9022 -1.7481 18.0000 97.0000
-1.0226 6.9019 -1.7464 19.0000 109.0000
-0.9807 6.9109 -1.7471 19.0000 104.0000
-0.9384 6.9178 -1.7474 18.0000 127.0000
-0.8963 6.9263 -1.7481 21.0000 83.0000
-0.8525 6.9211 -1.7454 18.0000 100.0000
-0.8113 6.9377 -1.7484 20.0000 112.0000
-0.7685 6.9407 -1.7479 20.0000 119.0000
-0.7251 6.9375 -1.7459 20.0000 84.0000
-0.6838 6.9544 -1.7491 23.0000 85.0000
-0.6404 6.9507 -1.7471 20.0000 100.0000
-0.5973 6.9497 -1.7459 19.0000 103.0000
-0.5546 6.9523 -1.7456 19.0000 138.0000
-0.5127 6.9671 -1.7486 17.0000 98.0000
-0.4702 6.9731 -1.7494 18.0000 95.0000
-0.4273 6.9748 -1.7491 18.0000 85.0000
-0.3840 6.9677 -1.7466 19.0000 139.0000
-0.3409 6.9621 -1.7446 18.0000 132.0000
-0.2978 6.9554 -1.7424 18.0000 114.0000
-0.2557 6.9735 -1.7466 21.0000 122.0000
-0.2130 6.9789 -1.7476 22.0000 110.0000
-0.1704 6.9878 -1.7496 23.0000 111.0000
-0.1275 6.9897 -1.7499 23.0000 100.0000
-0.0846 6.9913 -1.7501 24.0000 101.0000
-0.0417 6.9868 -1.7489 22.0000 112.0000
0.0012 6.9792 -1.7469 22.0000 115.0000
0.0440 6.9742 -1.7456 22.0000 91.0000
0.0867 6.9690 -1.7444 17.0000 92.0000
0.1296 6.9761 -1.7464 16.0000 77.0000
0.1725 6.9800 -1.7476 19.0000 79.0000
0.2149 6.9652 -1.7441 16.0000 84.0000
0.2579 6.9696 -1.7456 19.0000 112.0000
0.3006 6.9659 -1.7451 17.0000 100.0000
0.3434 6.9659 -1.7456 18.0000 115.0000
0.3863 6.9666 -1.7464 18.0000 105.0000
0.4288 6.9612 -1.7456 18.0000 125.0000
0.4715 6.9584 -1.7456 19.0000 75.0000
0.5145 6.9583 -1.7464 20.0000 95.0000
0.5574 6.9579 -1.7471 20.0000 127.0000
0.6001 6.9543 -1.7471 20.0000 100.0000
0.6430 6.9534 -1.7479 20.0000 120.0000
0.6861 6.9542 -1.7491 19.0000 88.0000
0.7294 6.9556 -1.7506 18.0000 119.0000
0.7737 6.9654 -1.7543 19.0000 89.0000
0.8174 6.9692 -1.7566 19.0000 101.0000
0.8599 6.9621 -1.7561 19.0000 89.0000
0.9029 6.9586 -1.7566 20.0000 81.0000
0.9458 6.9549 -1.7571 18.0000 92.0000
0.9891 6.9538 -1.7583 18.0000 93.0000
1.0327 6.9533 -1.7598 18.0000 93.0000
1.0756 6.9487 -1.7603 18.0000 81.0000
1.1198 6.9516 -1.7628 16.0000 89.0000
1.1642 6.9551 -1.7655 19.0000 86.0000
1.2091 6.9612 -1.7690 18.0000 97.0000
1.2539 6.9651 -1.7720 17.0000 79.0000
1.2977 6.9629 -1.7735 18.0000 77.0000
1.3418 6.9625 -1.7755 17.0000 61.0000
1.3849 6.9560 -1.7760 17.0000 61.0000
1.4286 6.9521 -1.7772 20.0000 89.0000
1.4720 6.9470 -1.7782 17.0000 69.0000
1.5158 6.9435 -1.7797 18.0000 81.0000
1.5614 6.9473 -1.7832 18.0000 70.0000
1.6057 6.9452 -1.7852 18.0000 62.0000
1.6490 6.9380 -1.7859 16.0000 88.0000
1.6925 6.9315 -1.7869 16.0000 80.0000
1.7364 6.9266 -1.7884 17.0000 94.0000
1.7791 6.9168 -1.7887 17.0000 104.0000
1.8210 6.9039 -1.7882 17.0000 91.0000
1.8638 6.8944 -1.7887 17.0000 105.0000
1.9069 6.8857 -1.7894 17.0000 87.0000
1.9504 6.8785 -1.7906 17.0000 84.0000
1.9934 6.8692 -1.7914 17.0000 93.0000
2.0366 6.8605 -1.7924 16.0000 94.0000
2.0801 6.8525 -1.7936 16.0000 76.0000
2.1229 6.8424 -1.7944 15.0000 82.0000
2.1661 6.8330 -1.7954 16.0000 65.0000
2.2085 6.8214 -1.7959 16.0000 102.0000
2.2497 6.8059 -1.7954 16.0000 102.0000
2.2905 6.7892 -1.7946 16.0000 89.0000
2.3315 6.7732 -1.7941 14.0000 100.0000
2.3721 6.7560 -1.7934 14.0000 96.0000
2.4154 6.7468 -1.7949 15.0000 68.0000
2.4581 6.7355 -1.7959 15.0000 100.0000
2.5008 6.7239 -1.7969 15.0000 69.0000
2.5416 6.7075 -1.7966 15.0000 90.0000
2.5834 6.6936 -1.7971 16.0000 86.0000
2.6245 6.6776 -1.7971 16.0000 110.0000
2.6675 6.6668 -1.7986 16.0000 101.0000
2.7110 6.6566 -1.8003 18.0000 81.0000
2.7514 6.6389 -1.8001 17.0000 95.0000
2.7924 6.6228 -1.8003 16.0000 86.0000
2.8345 6.6091 -1.8013 16.0000 89.0000
2.8762 6.5943 -1.8021 15.0000 75.0000
2.9158 6.5747 -1.8016 15.0000 112.0000
2.9565 6.5576 -1.8018 16.0000 75.0000
2.9983 6.5428 -1.8028 16.0000 101.0000
3.0384 6.5243 -1.8028 18.0000 103.0000
3.0800 6.5091 -1.8038 17.0000 101.0000
3.1212 6.4927 -1.8046 16.0000 80.0000
3.1610 6.4734 -1.8046 16.0000 105.0000
3.2032 6.4591 -1.8061 15.0000 71.0000
3.2454 6.4445 -1.8076 16.0000 103.0000
3.2862 6.4270 -1.8083 16.0000 105.0000
3.3247 6.4050 -1.8078 15.0000 81.0000
3.3657 6.3879 -1.8088 15.0000 86.0000
3.4094 6.3757 -1.8113 16.0000 83.0000
3.4513 6.3598 -1.8128 16.0000 71.0000
3.4883 6.3351 -1.8118 16.0000 113.0000
3.5357 6.3288 -1.8163 14.0000 57.0000
3.5787 6.3145 -1.8185 15.0000 64.0000
3.6251 6.3059 -1.8225 15.0000 68.0000
3.6682 6.2911 -1.8247 15.0000 64.0000
3.7092 6.2726 -1.8260 16.0000 91.0000
3.7506 6.2547 -1.8274 15.0000 77.0000
3.7914 6.2357 -1.8287 16.0000 76.0000
3.8296 6.2123 -1.8287 17.0000 57.0000
3.8702 6.1928 -1.8299 16.0000 99.0000
3.9128 6.1763 -1.8322 15.0000 52.0000
3.9522 6.1546 -1.8329 15.0000 59.0000
3.9904 6.1311 -1.8332 15.0000 66.0000
4.0322 6.1129 -1.8352 15.0000 86.0000
4.0745 6.0953 -1.8374 15.0000 76.0000
4.1129 6.0718 -1.8379 14.0000 82.0000
4.1605 6.0616 -1.8426 17.0000 41.0000
4.1993 6.0384 -1.8434 16.0000 57.0000
4.2418 6.0204 -1.8459 15.0000 71.0000
4.2843 6.0022 -1.8483 16.0000 89.0000
4.3211 5.9758 -1.8483 16.0000 74.0000
4.3577 5.9491 -1.8483 16.0000 98.0000
4.3987 5.9285 -1.8503 17.0000 89.0000
4.4420 5.9107 -1.8533 17.0000 82.0000
4.4846 5.8918 -1.8560 16.0000 76.0000
4.5284 5.8741 -1.8593 15.0000 119.0000
4.5673 5.8501 -1.8605 17.0000 68.0000
4.6086 5.8288 -1.8628 17.0000 88.0000
4.6485 5.8057 -1.8645 18.0000 112.0000
4.6852 5.7785 -1.8650 17.0000 103.0000
4.7249 5.7549 -1.8667 16.0000 111.0000
4.7694 5.7370 -1.8705 17.0000 79.0000
4.8176 5.7232 -1.8757 17.0000 68.0000
4.8621 5.7045 -1.8794 16.0000 62.0000
4.9002 5.6783 -1.8807 15.0000 77.0000
4.9426 5.6568 -1.8837 17.0000 55.0000
4.9836 5.6337 -1.8861 18.0000 50.0000
5.0252 5.6109 -1.8889 17.0000 63.0000
5.0686 5.5900 -1.8924 17.0000 66.0000
5.1081 5.5645 -1.8943 18.0000 62.0000
5.1606 5.5529 -1.9013 16.0000 88.0000
5.2032 5.5303 -1.9045 17.0000 83.0000
5.2464 5.5081 -1.9080 16.0000 96.0000
5.2915 5.4877 -1.9123 16.0000 79.0000
5.3387 5.4689 -1.9172 15.0000 72.0000
5.3898 5.4540 -1.9237 16.0000 84.0000
5.4355 5.4331 -1.9282 15.0000 97.0000
5.4922 5.4228 -1.9366 16.0000 70.0000
5.5406 5.4039 -1.9421 15.0000 62.0000
5.5842 5.3798 -1.9458 15.0000 70.0000
5.6262 5.3541 -1.9491 14.0000 72.0000
5.6660 5.3262 -1.9515 13.0000 59.0000
5.7000 5.2926 -1.9520 14.0000 79.0000
5.7366 5.2615 -1.9535 14.0000 66.0000
5.7681 5.2255 -1.9533 14.0000 79.0000
5.7878 5.1790 -1.9491 17.0000 75.0000
5.8049 5.1306 -1.9441 18.0000 71.0000
5.8210 5.0815 -1.9389 16.0000 71.0000
5.8087 5.0084 -1.9242 13.0000 104.0000
5.8231 4.9589 -1.9187 11.0000 73.0000
5.8342 4.9069 -1.9123 11.0000 75.0000
5.8440 4.8543 -1.9055 11.0000 60.0000
5.8557 4.8036 -1.8996 10.0000 77.0000
5.8738 4.7584 -1.8958 11.0000 65.0000
5.8605 4.6884 -1.8819 9.0000 39.0000
5.8717 4.6386 -1.8762 9.0000 66.0000
5.8764 4.5840 -1.8685 9.0000 61.0000
5.8775 4.5272 -1.8598 8.0000 50.0000
5.8928 4.4817 -1.8558 8.0000 58.0000
5.8985 4.4292 -1.8488 7.0000 59.0000
5.9108 4.3819 -1.8441 6.0000 54.0000
5.9251 4.3364 -1.8401 6.0000 53.0000
5.9311 4.2853 -1.8337 6.0000 65.0000
5.9423 4.2381 -1.8289 6.0000 62.0000
5.9540 4.1915 -1.8245 6.0000 44.0000
5.9629 4.1433 -1.8192 6.0000 59.0000
5.9666 4.0919 -1.8125 5.0000 46.0000
5.9651 4.0373 -1.8043 5.0000 62.0000
5.9761 3.9915 -1.8001 5.0000 59.0000
5.9891 3.9473 -1.7966 5.0000 69.0000
5.9962 3.8994 -1.7914 5.0000 56.0000
5.9890 3.8427 -1.7819 4.0000 61.0000
5.9863 3.7893 -1.7740 5.0000 61.0000
5.9954 3.7438 -1.7698 5.0000 53.0000
6.0043 3.6983 -1.7655 4.0000 48.0000
6.0153 3.6543 -1.7620 5.0000 60.0000
6.0276 3.6114 -1.7591 5.0000 37.0000
6.0213 3.5576 -1.7506 5.0000 61.0000
6.0095 3.5011 -1.7407 5.0000 52.0000
6.0149 3.4550 -1.7359 4.0000 42.0000
6.0276 3.4133 -1.7334 5.0000 56.0000
6.0306 3.3663 -1.7282 5.0000 57.0000
6.0291 3.3171 -1.7218 5.0000 62.0000
6.0323 3.2708 -1.7168 5.0000 68.0000
6.0189 3.2160 -1.7071 5.0000 64.0000
6.0317 3.1754 -1.7051 5.0000 43.0000
6.0433 3.1343 -1.7029 5.0000 36.0000
6.0478 3.0897 -1.6986 6.0000 62.0000
6.0528 3.0456 -1.6946 6.0000 56.0000
6.0687 3.0071 -1.6939 7.0000 57.0000
6.0723 2.9626 -1.6897 6.0000 68.0000
6.0720 2.9165 -1.6845 6.0000 54.0000
6.0784 2.8738 -1.6812 6.0000 69.0000
6.0880 2.8327 -1.6790 6.0000 70.0000
6.0903 2.7885 -1.6748 6.0000 66.0000
6.0949 2.7455 -1.6713 5.0000 52.0000
6.1099 2.7073 -1.6708 6.0000 55.0000
6.1202 2.6670 -1.6690 6.0000 73.0000
6.1320 2.6275 -1.6678 6.0000 75.0000
6.1355 2.5846 -1.6643 6.0000 38.0000
6.1288 2.5376 -1.6581 5.0000 59.0000
6.1263 2.4927 -1.6531 5.0000 47.0000
6.1343 2.4522 -1.6511 5.0000 58.0000
6.1474 2.4138 -1.6506 5.0000 51.0000
6.1540 2.3729 -1.6484 5.0000 49.0000
6.1585 2.3313 -1.6457 5.0000 65.0000
6.1572 2.2878 -1.6414 5.0000 45.0000
6.1621 2.2466 -1.6389 5.0000 60.0000
6.1730 2.2078 -1.6382 5.0000 65.0000
6.1690 2.1638 -1.6335 5.0000 42.0000
6.1657 2.1203 -1.6290 5.0000 74.0000
6.1694 2.0793 -1.6265 5.0000 87.0000
6.1692 2.0372 -1.6230 5.0000 55.0000
6.1733 1.9966 -1.6208 5.0000 63.0000
6.1808 1.9572 -1.6195 5.0000 50.0000
6.1853 1.9170 -1.6176 5.0000 52.0000
6.1923 1.8776 -1.6163 5.0000 76.0000
6.1935 1.8365 -1.6136 5.0000 44.0000
6.1851 1.7928 -1.6084 6.0000 40.0000
6.1839 1.7514 -1.6051 5.0000 43.0000
6.1936 1.7132 -1.6049 5.0000 55.0000
6.2012 1.6744 -1.6041 6.0000 63.0000
6.2057 1.6348 -1.6026 6.0000 58.0000
6.2015 1.5931 -1.5989 6.0000 64.0000
6.1990 1.5520 -1.5957 5.0000 63.0000
6.2065 1.5135 -1.5952 6.0000 70.0000
6.2223 1.4769 -1.5969 6.0000 52.0000
6.2331 1.4392 -1.5974 5.0000 55.0000
6.2295 1.3981 -1.5942 5.0000 60.0000
6.2323 1.3586 -1.5927 5.0000 56.0000
6.2367 1.3196 -1.5917 5.0000 70.0000
6.2438 1.2811 -1.5914 5.0000 63.0000
6.2610 1.2446 -1.5939 5.0000 51.0000
6.2666 1.2058 -1.5934 5.0000 58.0000
6.2682 1.1663 -1.5919 5.0000 39.0000
6.2848 1.1295 -1.5944 4.0000 53.0000
6.2887 1.0904 -1.5937 5.0000 45.0000
6.2762 1.0487 -1.5887 4.0000 45.0000
6.2854 1.0106 -1.5895 4.0000 44.0000
6.2914 0.9720 -1.5895 4.0000 51.0000
6.2935 0.9328 -1.5885 4.0000 56.0000
6.3029 0.8947 -1.5895 4.0000 42.0000
6.3179 0.8573 -1.5919 4.0000 45.0000
6.3220 0.8184 -1.5917 4.0000 40.0000
6.3202 0.7788 -1.5899 4.0000 43.0000
6.3181 0.7392 -1.5882 4.0000 60.0000
6.3216 0.7003 -1.5880 4.0000 76.0000
6.3354 0.6625 -1.5904 4.0000 52.0000
6.3432 0.6240 -1.5914 4.0000 41.0000
6.3440 0.5848 -1.5907 4.0000 60.0000
6.3485 0.5460 -1.5909 4.0000 39.0000
6.3488 0.5068 -1.5902 4.0000 39.0000
6.3489 0.4676 -1.5895 4.0000 37.0000
6.3439 0.4281 -1.5875 3.0000 53.0000
6.3464 0.3892 -1.5875 4.0000 53.0000
6.3516 0.3504 -1.5882 4.0000 50.0000
6.3497 0.3112 -1.5872 4.0000 41.0000
6.3535 0.2723 -1.5877 4.0000 55.0000
6.3647 0.2337 -1.5902 4.0000 53.0000
6.3660 0.1946 -1.5902 4.0000 34.0000
6.3622 0.1555 -1.5890 4.0000 58.0000
6.3524 0.1162 -1.5862 4.0000 51.0000
6.3724 0.0775 -1.5912 5.0000 52.0000
6.3718 0.0384 -1.5909 5.0000 48.0000
6.3661 -0.0007 -1.5895 5.0000 61.0000
6.3611 -0.0398 -1.5882 5.0000 42.0000
6.3598 -0.0788 -1.5880 4.0000 45.0000
6.3660 -0.1179 -1.5897 5.0000 76.0000
6.3719 -0.1572 -1.5914 4.0000 43.0000
6.3669 -0.1961 -1.5904 4.0000 58.0000
6.3569 -0.2349 -1.5882 4.0000 69.0000
6.3563 -0.2739 -1.5885 4.0000 43.0000
6.3555 -0.3129 -1.5887 4.0000 54.0000
6.3641 -0.3525 -1.5914 4.0000 46.0000
6.3637 -0.3917 -1.5919 3.0000 42.0000
6.3593 -0.4306 -1.5914 3.0000 66.0000
6.3604 -0.4699 -1.5924 3.0000 48.0000
6.3680 -0.5098 -1.5952 3.0000 56.0000
6.3715 -0.5494 -1.5969 3.0000 42.0000
6.3834 -0.5899 -1.6009 3.0000 39.0000
6.3874 -0.6299 -1.6029 3.0000 40.0000
6.3892 -0.6697 -1.6044 3.0000 42.0000
6.3907 -0.7095 -1.6059 3.0000 53.0000
6.4007 -0.7504 -1.6096 3.0000 26.0000
6.3941 -0.7894 -1.6091 3.0000 56.0000
6.3853 -0.8281 -1.6081 4.0000 58.0000
6.3925 -0.8690 -1.6113 3.0000 55.0000
6.4082 -0.9112 -1.6168 3.0000 40.0000
6.4092 -0.9515 -1.6185 3.0000 53.0000
6.4099 -0.9919 -1.6203 3.0000 65.0000
6.4056 -1.0315 -1.6208 3.0000 52.0000
6.4001 -1.0709 -1.6210 3.0000 39.0000
6.4058 -1.1124 -1.6243 4.0000 55.0000
6.4113 -1.1539 -1.6275 4.0000 50.0000
6.4136 -1.1950 -1.6300 4.0000 64.0000
6.4099 -1.2350 -1.6310 4.0000 53.0000
6.4155 -1.2770 -1.6345 5.0000 75.0000
6.4076 -1.3163 -1.6345 5.0000 45.0000
6.4051 -1.3568 -1.6360 5.0000 43.0000
6.3995 -1.3967 -1.6367 5.0000 47.0000
6.4002 -1.4381 -1.6392 6.0000 46.0000
6.3998 -1.4793 -1.6414 6.0000 75.0000
6.3915 -1.5188 -1.6417 6.0000 61.0000
6.3905 -1.5600 -1.6439 6.0000 64.0000
6.3874 -1.6009 -1.6457 7.0000 70.0000
6.3840 -1.6417 -1.6474 7.0000 38.0000
6.3776 -1.6819 -1.6484 8.0000 71.0000
6.3709 -1.7220 -1.6494 8.0000 64.0000
6.3779 -1.7660 -1.6541 9.0000 54.0000
6.3670 -1.8051 -1.6541 9.0000 43.0000
6.3642 -1.8465 -1.6563 10.0000 76.0000
6.3639 -1.8889 -1.6593 9.0000 53.0000
6.3531 -1.9282 -1.6596 9.0000 58.0000
6.3513 -1.9703 -1.6623 10.0000 73.0000
6.3492 -2.0124 -1.6651 9.0000 70.0000
6.3663 -2.0609 -1.6730 11.0000 58.0000
6.3921 -2.1127 -1.6835 16.0000 115.0000
6.3799 -2.1522 -1.6837 17.0000 89.0000
6.3684 -2.1919 -1.6842 14.0000 94.0000
6.3558 -2.2313 -1.6845 14.0000 91.0000
6.3420 -2.2703 -1.6845 14.0000 92.0000
6.3252 -2.3081 -1.6837 14.0000 115.0000
6.3064 -2.3452 -1.6825 13.0000 75.0000
6.3000 -2.3870 -1.6847 17.0000 78.0000
6.2780 -2.4228 -1.6827 16.0000 77.0000
6.2495 -2.4559 -1.6790 18.0000 88.0000
6.1867 -2.4751 -1.6658 15.0000 76.0000
6.1427 -2.5013 -1.6578 15.0000 73.0000
6.0923 -2.5245 -1.6481 15.0000 69.0000
6.0036 -2.5309 -1.6277 16.0000 91.0000
5.9532 -2.5528 -1.6181 18.0000 92.0000
5.9073 -2.5761 -1.6096 19.0000 74.0000
5.8134 -2.5777 -1.5877 14.0000 87.0000
5.7428 -2.5886 -1.5723 12.0000 90.0000
5.7030 -2.6129 -1.5656 13.0000 70.0000
5.6395 -2.6257 -1.5521 15.0000 74.0000
5.5996 -2.6491 -1.5454 14.0000 89.0000
5.5597 -2.6721 -1.5387 14.0000 87.0000
5.5284 -2.6989 -1.5345 14.0000 77.0000
5.5013 -2.7276 -1.5315 13.0000 42.0000
5.5148 -2.7766 -1.5402 15.0000 87.0000
5.5071 -2.8152 -1.5429 18.0000 120.0000
5.4846 -2.8463 -1.5415 17.0000 89.0000
5.4619 -2.8771 -1.5400 18.0000 101.0000
5.4467 -2.9120 -1.5407 19.0000 78.0000
5.4236 -2.9426 -1.5392 19.0000 95.0000
5.3961 -2.9706 -1.5365 18.0000 77.0000
5.3710 -2.9999 -1.5345 17.0000 80.0000
5.3458 -3.0290 -1.5325 19.0000 86.0000
5.3153 -3.0550 -1.5290 18.0000 53.0000
5.2865 -3.0817 -1.5260 19.0000 53.0000
5.2608 -3.1101 -1.5240 19.0000 86.0000
5.2391 -3.1408 -1.5233 20.0000 49.0000
5.2164 -3.1709 -1.5223 19.0000 89.0000
5.1845 -3.1952 -1.5186 19.0000 52.0000
5.1517 -3.2187 -1.5146 18.0000 118.0000
5.1220 -3.2441 -1.5116 18.0000 112.0000
5.0914 -3.2686 -1.5084 18.0000 83.0000
5.0664 -3.2966 -1.5069 18.0000 115.0000
5.0372 -3.3218 -1.5042 16.0000 102.0000
5.0167 -3.3526 -1.5042 17.0000 76.0000
4.9936 -3.3817 -1.5034 18.0000 111.0000
4.9712 -3.4112 -1.5029 17.0000 113.0000
4.9390 -3.4339 -1.4994 19.0000 93.0000
4.9131 -3.4608 -1.4979 18.0000 107.0000
4.8855 -3.4864 -1.4959 18.0000 85.0000
4.8593 -3.5129 -1.4945 18.0000 95.0000
4.8345 -3.5403 -1.4935 19.0000 87.0000
4.8057 -3.5647 -1.4912 18.0000 98.0000
4.7799 -3.5912 -1.4900 18.0000 72.0000
4.7539 -3.6176 -1.4887 18.0000 112.0000
4.7309 -3.6461 -1.4885 18.0000 78.0000
4.7084 -3.6750 -1.4885 19.0000 87.0000
4.6850 -3.7032 -1.4882 20.0000 78.0000
4.6614 -3.7313 -1.4880 20.0000 87.0000
4.6324 -3.7550 -1.4860 19.0000 108.0000
4.6071 -3.7815 -1.4853 19.0000 62.0000
4.5823 -3.8084 -1.4848 20.0000 71.0000
4.5544 -3.8327 -1.4833 20.0000 77.0000
4.5315 -3.8612 -1.4835 19.0000 77.0000
4.5114 -3.8921 -1.4848 18.0000 100.0000
4.4911 -3.9229 -1.4860 17.0000 72.0000
4.4684 -3.9517 -1.4865 18.0000 93.0000
4.4448 -3.9797 -1.4867 19.0000 86.0000
4.4081 -3.9958 -1.4825 20.0000 100.0000
4.3771 -4.0169 -1.4803 21.0000 94.0000
4.3545 -4.0456 -1.4810 21.0000 114.0000
4.3345 -4.0769 -1.4828 22.0000 98.0000
4.3122 -4.1061 -1.4838 21.0000 96.0000
4.2800 -4.1258 -1.4813 19.0000 100.0000
4.2511 -4.1486 -1.4800 19.0000 100.0000
4.2256 -4.1746 -1.4800 19.0000 86.0000
4.2012 -4.2018 -1.4805 18.0000 114.0000
4.1740 -4.2261 -1.4800 19.0000 74.0000
4.1460 -4.2496 -1.4793 20.0000 119.0000
4.1151 -4.2701 -1.4775 18.0000 69.0000
4.0855 -4.2917 -1.4763 19.0000 86.0000
4.0578 -4.3153 -1.4758 20.0000 103.0000
4.0286 -4.3373 -1.4748 20.0000 61.0000
3.9999 -4.3598 -1.4741 19.0000 81.0000
3.9692 -4.3799 -1.4726 20.0000 78.0000
3.9397 -4.4013 -1.4716 19.0000 73.0000
3.9075 -4.4196 -1.4696 19.0000 91.0000
3.8694 -4.4311 -1.4654 23.0000 119.0000
3.8378 -4.4496 -1.4636 22.0000 67.0000
3.8135 -4.4767 -1.4649 25.0000 83.0000
3.7829 -4.4963 -1.4636 23.0000 71.0000
3.7534 -4.5172 -1.4629 24.0000 84.0000
3.7231 -4.5372 -1.4619 22.0000 79.0000
3.6885 -4.5517 -1.4591 23.0000 118.0000
3.6538 -4.5659 -1.4564 23.0000 107.0000
3.6222 -4.5837 -1.4549 23.0000 98.0000
3.5904 -4.6012 -1.4534 24.0000 133.0000
3.5609 -4.6216 -1.4529 25.0000 99.0000
3.5290 -4.6387 -1.4514 24.0000 119.0000
3.4865 -4.6417 -1.4455 21.0000 106.0000
3.4522 -4.6552 -1.4430 23.0000 104.0000
3.4150 -4.6646 -1.4392 27.0000 100.0000
3.3886 -4.6886 -1.4402 27.0000 114.0000
3.3580 -4.7070 -1.4395 21.0000 87.0000
3.3191 -4.7132 -1.4350 16.0000 85.0000
3.2873 -4.7295 -1.4338 15.0000 72.0000
3.2342 -4.7144 -1.4228 20.0000 92.0000
3.2014 -4.7286 -1.4211 24.0000 84.0000
3.1750 -4.7521 -1.4223 21.0000 84.0000
3.1479 -4.7748 -1.4233 22.0000 84.0000
3.1312 -4.8135 -1.4293 18.0000 100.0000
3.0933 -4.8196 -1.4253 22.0000 109.0000
3.0590 -4.8311 -1.4231 20.0000 104.0000
3.0175 -4.8309 -1.4174 22.0000 69.0000
2.9842 -4.8435 -1.4156 22.0000 95.0000
2.9293 -4.8203 -1.4032 24.0000 78.0000
2.8922 -4.8257 -1.3995 24.0000 114.0000
2.8517 -4.8250 -1.3940 23.0000 114.0000
2.8021 -4.8081 -1.3838 42.0000 116.0000
2.7769 -4.8328 -1.3860 33.0000 121.0000
2.7610 -4.8742 -1.3932 15.0000 106.0000
2.7278 -4.8851 -1.3915 16.0000 96.0000
2.6963 -4.8992 -1.3907 15.0000 84.0000
2.6662 -4.9157 -1.3907 15.0000 110.0000
2.6351 -4.9302 -1.3903 13.0000 101.0000
2.6057 -4.9480 -1.3907 14.0000 105.0000
2.5744 -4.9622 -1.3903 13.0000 106.0000
2.5404 -4.9710 -1.3883 14.0000 111.0000
2.5090 -4.9848 -1.3878 16.0000 88.0000
2.4757 -4.9949 -1.3863 17.0000 113.0000
2.4442 -5.0082 -1.3858 18.0000 78.0000
2.4084 -5.0126 -1.3828 16.0000 83.0000
2.3731 -5.0177 -1.3801 27.0000 109.0000
2.3434 -5.0348 -1.3808 20.0000 86.0000
2.3085 -5.0403 -1.3783 15.0000 87.0000
2.2743 -5.0473 -1.3763 19.0000 63.0000
2.2421 -5.0585 -1.3756 19.0000 95.0000
2.2095 -5.0686 -1.3746 18.0000 96.0000
2.1734 -5.0705 -1.3714 20.0000 114.0000
2.1411 -5.0810 -1.3706 18.0000 107.0000
2.1051 -5.0824 -1.3674 22.0000 70.0000
2.0721 -5.0908 -1.3661 23.0000 87.0000
2.0379 -5.0962 -1.3641 20.0000 98.0000
2.0041 -5.1023 -1.3624 18.0000 98.0000
1.9624 -5.0874 -1.3549 27.0000 106.0000
1.9291 -5.0939 -1.3534 27.0000 100.0000
1.8981 -5.1065 -1.3537 21.0000 100.0000
1.8677 -5.1208 -1.3544 22.0000 103.0000
1.8363 -5.1322 -1.3544 24.0000 96.0000
1.7987 -5.1260 -1.3497 34.0000 107.0000
1.7694 -5.1433 -1.3515 30.0000 132.0000
1.7369 -5.1513 -1.3507 24.0000 72.0000
1.7052 -5.1619 -1.3507 23.0000 105.0000
1.6726 -5.1695 -1.3500 27.0000 111.0000
1.6353 -5.1621 -1.3452 30.0000 111.0000
1.6013 -5.1646 -1.3432 28.0000 136.0000
1.5657 -5.1614 -1.3398 28.0000 132.0000
1.5307 -5.1597 -1.3368 29.0000 153.0000
1.4952 -5.1560 -1.3333 31.0000 114.0000
1.4557 -5.1371 -1.3258 30.0000 130.0000
1.4174 -5.1217 -1.3194 30.0000 93.0000
1.3928 -5.1555 -1.3261 35.0000 135.0000
1.3589 -5.1556 -1.3239 39.0000 102.0000
1.3258 -5.1582 -1.3224 31.0000 99.0000
1.2936 -5.1643 -1.3219 34.0000 95.0000
1.2596 -5.1628 -1.3194 29.0000 105.0000
1.2268 -5.1657 -1.3181 30.0000 96.0000
1.1938 -5.1674 -1.3166 30.0000 101.0000
1.1612 -5.1709 -1.3156 31.0000 105.0000
1.1289 -5.1751 -1.3149 40.0000 137.0000
1.0945 -5.1696 -1.3117 47.0000 138.0000
1.0631 -5.1781 -1.3122 50.0000 118.0000
1.0319 -5.1874 -1.3129 39.0000 106.0000
1.0002 -5.1946 -1.3132 27.0000 87.0000
0.9671 -5.1939 -1.3114 23.0000 103.0000
0.9342 -5.1941 -1.3099 21.0000 97.0000
0.9022 -5.1987 -1.3097 22.0000 84.0000
0.8679 -5.1898 -1.3059 25.0000 92.0000
0.8348 -5.1874 -1.3040 25.0000 104.0000
0.8017 -5.1848 -1.3020 27.0000 128.0000
0.7692 -5.1848 -1.3007 26.0000 89.0000
0.7379 -5.1933 -1.3017 32.0000 113.0000
0.7055 -5.1939 -1.3007 30.0000 105.0000
0.6733 -5.1952 -1.3000 15.0000 92.0000
0.4939 -3.9965 -0.9889 29.0000 114.0000
0.4657 -3.9678 -0.9807 32.0000 134.0000
0.4397 -3.9551 -0.9767 38.0000 134.0000
0.4146 -3.9501 -0.9747 39.0000 108.0000
0.3896 -3.9448 -0.9727 38.0000 136.0000
0.3647 -3.9394 -0.9707 34.0000 120.0000
0.3407 -3.9435 -0.9712 33.0000 110.0000
0.3174 -3.9571 -0.9742 29.0000 130.0000
0.2934 -3.9628 -0.9752 29.0000 124.0000
0.2701 -3.9810 -0.9794 25.0000 114.0000
0.2475 -4.0125 -0.9871 16.0000 106.0000
0.2883 -5.2133 -1.2955 24.0000 97.0000
0.2561 -5.2111 -1.2945 27.0000 110.0000
0.2240 -5.2096 -1.2938 25.0000 87.0000
0.1918 -5.2041 -1.2920 24.0000 120.0000
0.1597 -5.1984 -1.2903 25.0000 99.0000
0.1276 -5.1916 -1.2883 23.0000 126.0000
0.0957 -5.1893 -1.2875 22.0000 136.0000
0.0638 -5.1860 -1.2865 25.0000 91.0000
0.0320 -5.1863 -1.2865 27.0000 93.0000
0.0001 -5.1893 -1.2873 27.0000 113.0000
-0.0317 -5.1930 -1.2883 29.0000 68.0000
-0.0636 -5.1956 -1.2890 26.0000 103.0000
-0.0955 -5.1961 -1.2893 27.0000 78.0000
-0.1278 -5.2100 -1.2930 32.0000 108.0000
-0.1598 -5.2110 -1.2935 30.0000 107.0000
-0.1921 -5.2177 -1.2955 30.0000 87.0000
-0.2243 -5.2222 -1.2970 30.0000 130.0000
-0.2568 -5.2304 -1.2995 29.0000 88.0000
-0.2894 -5.2374 -1.3017 28.0000 88.0000
-0.3223 -5.2472 -1.3047 26.0000 133.0000
-0.3557 -5.2635 -1.3094 25.0000 111.0000
-0.3872 -5.2505 -1.3067 21.0000 76.0000
-0.4190 -5.2423 -1.3052 25.0000 104.0000
-0.4510 -5.2386 -1.3050 24.0000 111.0000
-0.4827 -5.2310 -1.3037 27.0000 84.0000
-0.5146 -5.2260 -1.3032 27.0000 115.0000
-0.5470 -5.2256 -1.3040 27.0000 120.0000
-0.5801 -5.2318 -1.3064 24.0000 102.0000
-0.6131 -5.2358 -1.3084 27.0000 84.0000
-0.6459 -5.2377 -1.3099 26.0000 83.0000
-0.6791 -5.2413 -1.3119 28.0000 125.0000
-0.7109 -5.2352 -1.3114 29.0000 127.0000
-0.7436 -5.2345 -1.3124 25.0000 132.0000
-0.7778 -5.2442 -1.3161 25.0000 107.0000
-0.8119 -5.2518 -1.3194 26.0000 115.0000
-0.8446 -5.2496 -1.3201 26.0000 94.0000
-0.8742 -5.2290 -1.3161 20.0000 101.0000
-0.9063 -5.2236 -1.3161 21.0000 96.0000
-0.9435 -5.2465 -1.3236 29.0000 107.0000
-0.9766 -5.2454 -1.3248 30.0000 120.0000
-1.0100 -5.2459 -1.3266 28.0000 113.0000
-1.0416 -5.2368 -1.3258 28.0000 108.0000
-1.0722 -5.2227 -1.3239 30.0000 139.0000
-1.1056 -5.2227 -1.3256 26.0000 101.0000
-1.1397 -5.2253 -1.3281 26.0000 130.0000
-1.1726 -5.2219 -1.3291 29.0000 121.0000
-1.2064 -5.2222 -1.3311 25.0000 147.0000
-1.2411 -5.2260 -1.3340 27.0000 130.0000
-1.2736 -5.2202 -1.3345 25.0000 127.0000
-1.3075 -5.2198 -1.3365 25.0000 131.0000
-1.3438 -5.2285 -1.3410 24.0000 74.0000
-1.3833 -5.2483 -1.3485 21.0000 98.0000
-1.4211 -5.2603 -1.3539 22.0000 90.0000
-1.4562 -5.2617 -1.3567 23.0000 104.0000
-1.4882 -5.2517 -1.3564 23.0000 84.0000
-1.5201 -5.2416 -1.3562 24.0000 117.0000
-1.5528 -5.2340 -1.3567 23.0000 101.0000
-1.5880 -5.2346 -1.3594 22.0000 92.0000
-1.6238 -5.2368 -1.3626 23.0000 85.0000
-1.6594 -5.2378 -1.3656 23.0000 80.0000
-1.6957 -5.2404 -1.3691 25.0000 84.0000
-1.7309 -5.2391 -1.3716 24.0000 89.0000
-1.7667 -5.2394 -1.3746 24.0000 86.0000
-1.8026 -5.2394 -1.3776 26.0000 96.0000
-1.8373 -5.2356 -1.3796 24.0000 76.0000
-1.8726 -5.2333 -1.3820 22.0000 107.0000
-1.9067 -5.2272 -1.3835 21.0000 96.0000
-1.9425 -5.2254 -1.3863 19.0000 95.0000
-1.9762 -5.2179 -1.3875 18.0000 122.0000
-2.0082 -5.2057 -1.3875 18.0000 141.0000
-2.0401 -5.1933 -1.3875 18.0000 86.0000
-2.0741 -5.1860 -1.3890 17.0000 107.0000
-2.1059 -5.1732 -1.3890 15.0000 123.0000
-2.1379 -5.1611 -1.3893 15.0000 137.0000
-2.1711 -5.1514 -1.3903 15.0000 73.0000
-2.2034 -5.1398 -1.3907 16.0000 117.0000
-2.2365 -5.1297 -1.3917 16.0000 110.0000
-2.2703 -5.1212 -1.3932 16.0000 128.0000
-2.3036 -5.1116 -1.3945 17.0000 114.0000
-2.3386 -5.1053 -1.3967 18.0000 105.0000
-2.3756 -5.1031 -1.4002 18.0000 101.0000
-2.5230 -5.3336 -1.4698 19.0000 195.0000
-2.6166 -5.4445 -1.5059 23.0000 95.0000
-2.6504 -5.4292 -1.5061 24.0000 121.0000
-2.6798 -5.4051 -1.5039 22.0000 97.0000
-2.7103 -5.3833 -1.5024 23.0000 133.0000
-2.7441 -5.3683 -1.5029 17.0000 117.0000
-2.7806 -5.3583 -1.5049 15.0000 115.0000
-2.8116 -5.3377 -1.5039 15.0000 105.0000
-2.8443 -5.3203 -1.5039 15.0000 104.0000
-2.8783 -5.3053 -1.5046 14.0000 87.0000
-2.9122 -5.2901 -1.5054 15.0000 94.0000
-2.9465 -5.2755 -1.5064 14.0000 70.0000
-2.9798 -5.2590 -1.5069 14.0000 101.0000
-3.0139 -5.2440 -1.5079 14.0000 102.0000
-3.0465 -5.2262 -1.5081 14.0000 108.0000
-3.0770 -5.2049 -1.5074 15.0000 109.0000
-3.1104 -5.1885 -1.5081 13.0000 93.0000
-3.1417 -5.1684 -1.5079 15.0000 104.0000
-3.1749 -5.1515 -1.5086 15.0000 99.0000
-3.2059 -5.1311 -1.5084 14.0000 88.0000
-3.2373 -5.1114 -1.5084 14.0000 109.0000
-3.2655 -5.0865 -1.5069 16.0000 117.0000
-3.2950 -5.0640 -1.5061 15.0000 117.0000
-3.3213 -5.0364 -1.5039 12.0000 81.0000
-3.3526 -5.0167 -1.5042 13.0000 84.0000
-3.3850 -4.9984 -1.5049 11.0000 95.0000
-3.4172 -4.9800 -1.5056 12.0000 92.0000
-3.4510 -4.9637 -1.5071 12.0000 107.0000
-3.4859 -4.9487 -1.5091 12.0000 96.0000
-3.5190 -4.9312 -1.5104 12.0000 79.0000
-3.5498 -4.9103 -1.5106 12.0000 77.0000
-3.5838 -4.8939 -1.5124 12.0000 72.0000
-3.6098 -4.8664 -1.5106 12.0000 98.0000
-3.6384 -4.8426 -1.5101 11.0000 97.0000
-3.6710 -4.8240 -1.5114 10.0000 71.0000
-3.7088 -4.8121 -1.5148 11.0000 65.0000
-3.7460 -4.7992 -1.5181 11.0000 62.0000
-3.7808 -4.7830 -1.5203 10.0000 87.0000
-3.8119 -4.7620 -1.5211 10.0000 59.0000
-3.8435 -4.7415 -1.5221 10.0000 60.0000
-3.8799 -4.7268 -1.5250 11.0000 80.0000
-3.9001 -4.6925 -1.5216 9.0000 73.0000
-3.9351 -4.6759 -1.5240 10.0000 67.0000
-3.9687 -4.6575 -1.5260 10.0000 64.0000
-3.9998 -4.6360 -1.5270 10.0000 52.0000
-4.0307 -4.6143 -1.5280 11.0000 65.0000
-4.0435 -4.5721 -1.5221 9.0000 57.0000
-4.0864 -4.5638 -1.5278 10.0000 73.0000
-4.1123 -4.5365 -1.5270 10.0000 62.0000
-4.1368 -4.5076 -1.5258 9.0000 72.0000
-4.1776 -4.4963 -1.5308 11.0000 89.0000
-4.2078 -4.4734 -1.5318 12.0000 63.0000
-4.2365 -4.4489 -1.5323 13.0000 76.0000
-4.2684 -4.4277 -1.5340 12.0000 83.0000
-4.3016 -4.4077 -1.5362 13.0000 72.0000
-4.3299 -4.3826 -1.5367 13.0000 62.0000
-4.3608 -4.3600 -1.5382 13.0000 69.0000
-4.3889 -4.3345 -1.5387 14.0000 84.0000
-4.4195 -4.3116 -1.5402 14.0000 80.0000
-4.4522 -4.2904 -1.5424 13.0000 80.0000
-4.4798 -4.2644 -1.5429 13.0000 85.0000
-4.5080 -4.2388 -1.5437 11.0000 69.0000
-4.5411 -4.2176 -1.5462 9.0000 85.0000
-4.5890 -4.2100 -1.5539 6.0000 70.0000
-4.6147 -4.1817 -1.5539 3.0000 65.0000
-0.5718 -0.5165 -0.1528 1.0000 58.0000
-0.5779 -0.5156 -0.1538 1.0000 48.0000
-0.5898 -0.5197 -0.1567 1.0000 59.0000
-0.6047 -0.5261 -0.1607 1.0000 53.0000
-0.6124 -0.5262 -0.1622 1.0000 42.0000
-0.6223 -0.5280 -0.1645 1.0000 43.0000
-0.6031 -0.5056 -0.1570 1.0000 52.0000
-0.6489 -0.5369 -0.1712 2.0000 44.0000
-0.6522 -0.5329 -0.1712 2.0000 63.0000
-0.6517 -0.5259 -0.1699 2.0000 41.0000
-0.6595 -0.5255 -0.1714 2.0000 87.0000
-0.6550 -0.5155 -0.1689 1.0000 32.0000
-0.6636 -0.5156 -0.1707 1.0000 65.0000
-0.6683 -0.5127 -0.1712 1.0000 49.0000
-0.6815 -0.5161 -0.1744 1.0000 66.0000
-0.6364 -0.4762 -0.1590 1.0000 49.0000
-0.6377 -0.4711 -0.1585 1.0000 53.0000
-0.6437 -0.4695 -0.1595 1.0000 58.0000
-0.6426 -0.4627 -0.1582 1.0000 53.0000
-0.6439 -0.4577 -0.1577 1.0000 78.0000
-0.6467 -0.4537 -0.1577 1.0000 55.0000
-0.6503 -0.4503 -0.1580 1.0000 53.0000
-0.6538 -0.4468 -0.1582 1.0000 53.0000
-0.6525 -0.4401 -0.1570 1.0000 53.0000
-0.6552 -0.4361 -0.1570 1.0000 45.0000
-0.6587 -0.4326 -0.1572 1.0000 63.0000
-0.6621 -0.4291 -0.1575 1.0000 92.0000
-0.6648 -0.4250 -0.1575 1.0000 59.0000
-0.6657 -0.4199 -0.1570 1.0000 49.0000
-0.6691 -0.4163 -0.1572 1.0000 59.0000
-0.6783 -0.4162 -0.1592 1.0000 57.0000
-0.6559 -0.3971 -0.1518 1.0000 74.0000
-0.6808 -0.4064 -0.1585 1.0000 67.0000
-0.6841 -0.4027 -0.1587 1.0000 31.0000
-0.6916 -0.4014 -0.1602 1.0000 54.0000
-0.6949 -0.3976 -0.1605 1.0000 64.0000
-0.6999 -0.3947 -0.1612 1.0000 48.0000
-0.7040 -0.3914 -0.1617 1.0000 52.0000
-0.6962 -0.3815 -0.1587 1.0000 45.0000
-0.7053 -0.3809 -0.1607 1.0000 62.0000
-0.7025 -0.3738 -0.1592 1.0000 66.0000
-0.6996 -0.3668 -0.1577 1.0000 47.0000
-0.7079 -0.3656 -0.1595 1.0000 45.0000
-0.7171 -0.3647 -0.1615 1.0000 45.0000
-0.7037 -0.3526 -0.1570 1.0000 45.0000
-0.7128 -0.3517 -0.1590 1.0000 67.0000
-0.7298 -0.3544 -0.1632 1.0000 49.0000
-0.7144 -0.3417 -0.1582 1.0000 67.0000
-0.6884 -0.3242 -0.1503 1.0000 57.0000
-0.7018 -0.3252 -0.1535 1.0000 46.0000
-0.7117 -0.3245 -0.1558 1.0000 41.0000
-0.6907 -0.3099 -0.1493 1.0000 62.0000
-0.6970 -0.3076 -0.1505 1.0000 43.0000
-0.7042 -0.3056 -0.1520 1.0000 41.0000
-0.7186 -0.3065 -0.1555 1.0000 49.0000
-0.7070 -0.2966 -0.1518 1.0000 45.0000
-0.7178 -0.2959 -0.1543 1.0000 40.0000
-0.7214 -0.2922 -0.1548 1.0000 57.0000
-0.7241 -0.2881 -0.1550 1.0000 43.0000
-0.7186 -0.2809 -0.1530 1.0000 68.0000
-0.7285 -0.2795 -0.1553 1.0000 43.0000
-0.7229 -0.2724 -0.1533 1.0000 42.0000
-0.7255 -0.2683 -0.1535 1.0000 41.0000
-0.7362 -0.2671 -0.1560 1.0000 45.0000
-0.7434 -0.2645 -0.1575 1.0000 58.0000
-0.7266 -0.2536 -0.1525 1.0000 50.0000
-0.7273 -0.2488 -0.1523 1.0000 40.0000
-0.7371 -0.2471 -0.1545 1.0000 45.0000
-0.7293 -0.2396 -0.1520 1.0000 55.0000
-0.7400 -0.2380 -0.1545 1.0000 63.0000
-0.7313 -0.2303 -0.1518 1.0000 48.0000
-0.7281 -0.2244 -0.1505 1.0000 77.0000
-0.7350 -0.2216 -0.1520 1.0000 104.0000
-0.7326 -0.2160 -0.1510 1.0000 50.0000
-0.7349 -0.2118 -0.1513 1.0000 51.0000
-0.7446 -0.2096 -0.1535 1.0000 66.0000
-0.7402 -0.2035 -0.1520 1.0000 61.0000
-0.7424 -0.1992 -0.1523 1.0000 64.0000
-0.7483 -0.1959 -0.1535 1.0000 54.0000
-0.7692 -0.1962 -0.1587 1.0000 66.0000
-0.7488 -0.1862 -0.1530 1.0000 98.0000
-0.7612 -0.1843 -0.1560 1.0000 119.0000
-0.7557 -0.1781 -0.1543 1.0000 63.0000
-0.7577 -0.1737 -0.1545 1.0000 72.0000
-0.7588 -0.1690 -0.1545 1.0000 74.0000
-0.7693 -0.1663 -0.1570 1.0000 66.0000
-0.7703 -0.1616 -0.1570 1.0000 58.0000
-0.7770 -0.1580 -0.1585 1.0000 52.0000
-0.7798 -0.1536 -0.1590 1.0000 35.0000
-0.7369 -0.1407 -0.1475 1.0000 32.0000
-0.7023 -0.0945 -0.1369 1.0000 51.0000
-0.6894 -0.0885 -0.1334 1.0000 44.0000
-0.6331 -0.0777 -0.1187 1.0000 39.0000
-0.5778 -0.0677 -0.1043 1.0000 33.0000
-0.5801 -0.0643 -0.1048 1.0000 18.0000
-0.6517 -0.0315 -0.1224 1.0000 36.0000
-0.7448 -0.0309 -0.1463 1.0000 52.0000
-0.7653 -0.0269 -0.1515 1.0000 55.0000
-0.7335 -0.0215 -0.1433 1.0000 37.0000
-0.7568 -0.0174 -0.1493 1.0000 44.0000
-0.7579 -0.0127 -0.1495 1.0000 40.0000
-0.7696 -0.0081 -0.1525 1.0000 41.0000
-0.7667 -0.0034 -0.1518 1.0000 47.0000
-0.7609 0.0012 -0.1503 1.0000 51.0000
-0.7783 0.0061 -0.1548 1.0000 40.0000
-0.7841 0.0110 -0.1563 1.0000 35.0000
-0.7985 0.0162 -0.1600 1.0000 44.0000
-0.7810 0.0205 -0.1555 1.0000 23.0000
-0.7639 0.0765 -0.1520 1.0000 23.0000
-0.7643 0.0813 -0.1523 1.0000 36.0000
-0.7350 0.0826 -0.1448 1.0000 44.0000
-0.7373 0.0875 -0.1456 1.0000 30.0000
-0.7560 0.0945 -0.1505 1.0000 38.0000
-0.7650 0.1004 -0.1530 1.0000 66.0000
-0.7634 0.1050 -0.1528 1.0000 41.0000
-0.7272 0.0611 -0.1518 1.0000 19.0000
-0.7181 0.0648 -0.1494 1.0000 42.0000
-0.7168 0.0691 -0.1492 1.0000 40.0000
-0.7182 0.0737 -0.1497 1.0000 36.0000
-0.7168 0.0780 -0.1494 1.0000 47.0000
-0.7192 0.0827 -0.1502 1.0000 60.0000
-0.7005 0.0849 -0.1453 1.0000 40.0000
-0.6990 0.0891 -0.1450 1.0000 37.0000
-0.6917 0.0925 -0.1432 1.0000 33.0000
-0.7112 0.0995 -0.1487 1.0000 46.0000
-0.6953 0.1016 -0.1445 1.0000 33.0000
-0.6966 0.1062 -0.1450 1.0000 35.0000
-0.6883 0.1093 -0.1429 1.0000 23.0000
-0.6876 0.1135 -0.1429 1.0000 40.0000
-0.7278 0.1248 -0.1541 1.0000 49.0000
-0.6985 0.1241 -0.1463 1.0000 41.0000
-0.6883 0.1266 -0.1437 1.0000 42.0000
-0.6922 0.1318 -0.1450 1.0000 43.0000
-0.6876 0.1353 -0.1440 1.0000 35.0000
-0.6830 0.1387 -0.1429 1.0000 32.0000
-0.6755 0.1415 -0.1411 1.0000 41.0000
-0.6878 0.1485 -0.1447 1.0000 35.0000
-0.6803 0.1513 -0.1429 1.0000 29.0000
-0.6822 0.1561 -0.1437 1.0000 44.0000
-0.6765 0.1591 -0.1424 1.0000 34.0000
-0.6887 0.1665 -0.1460 1.0000 21.0000
-0.6361 0.1578 -0.1317 1.0000 32.0000
-0.6024 0.1533 -0.1226 1.0000 25.0000
-0.5707 0.1489 -0.1139 1.0000 49.0000
-0.5632 0.1506 -0.1121 1.0000 47.0000
-0.5288 0.1448 -0.1027 2.0000 37.0000
-0.6143 0.1725 -0.1270 1.0000 24.0000
-0.5835 0.1677 -0.1186 2.0000 36.0000
-0.6241 0.1836 -0.1304 1.0000 60.0000
-0.5676 0.1706 -0.1147 2.0000 37.0000
-0.5849 0.1798 -0.1199 1.0000 51.0000
-0.5691 0.1788 -0.1158 2.0000 52.0000
-0.5891 0.1891 -0.1218 1.0000 42.0000
-0.5880 0.1927 -0.1218 1.0000 41.0000
-0.5822 0.1948 -0.1205 1.0000 49.0000
-0.5810 0.1983 -0.1205 1.0000 44.0000
-0.6508 0.2268 -0.1408 1.0000 23.0000
-0.6685 0.2376 -0.1463 1.0000 37.0000
-0.6579 0.2384 -0.1437 1.0000 36.0000
-0.6728 0.2485 -0.1484 1.0000 45.0000
-0.6487 0.2441 -0.1419 1.0000 51.0000
-0.6661 0.2553 -0.1474 1.0000 28.0000
-0.6717 0.2622 -0.1494 1.0000 46.0000
-0.6709 0.2667 -0.1497 1.0000 45.0000
-0.6693 0.2708 -0.1497 1.0000 57.0000
-0.6658 0.2742 -0.1492 1.0000 41.0000
-0.6650 0.2786 -0.1494 1.0000 31.0000
-0.6633 0.2827 -0.1494 1.0000 35.0000
-0.6607 0.2864 -0.1492 1.0000 44.0000
-0.6554 0.2889 -0.1481 1.0000 36.0000
-0.6606 0.2961 -0.1502 1.0000 38.0000
-0.6527 0.2973 -0.1484 1.0000 49.0000
-0.6561 0.3038 -0.1500 1.0000 40.0000
-0.6507 0.3061 -0.1489 1.0000 38.0000
-0.6479 0.3097 -0.1487 1.0000 39.0000
-0.6400 0.3107 -0.1468 1.0000 31.0000
-0.6363 0.3138 -0.1463 1.0000 41.0000
-0.6352 0.3181 -0.1466 1.0000 39.0000
-0.6238 0.3172 -0.1437 1.0000 41.0000
-0.6201 0.3201 -0.1432 1.0000 59.0000
-0.6156 0.3225 -0.1424 1.0000 51.0000
-0.6170 0.3281 -0.1434 1.0000 29.0000
-0.6337 0.3420 -0.1492 1.0000 42.0000
-0.6434 0.3524 -0.1528 1.0000 34.0000
-0.6454 0.3587 -0.1541 1.0000 35.0000
-0.6533 0.3684 -0.1573 1.0000 41.0000
-0.6309 0.3608 -0.1510 1.0000 55.0000
-0.6220 0.3608 -0.1489 1.0000 44.0000
-0.6123 0.3602 -0.1466 1.0000 31.0000
-0.6101 0.3640 -0.1466 1.0000 36.0000
-0.6351 0.3842 -0.1552 1.0000 31.0000
-0.6418 0.3937 -0.1581 1.0000 45.0000
-0.6336 0.3940 -0.1562 1.0000 23.0000
-0.6328 0.3990 -0.1567 1.0000 55.0000
-0.6247 0.3992 -0.1549 1.0000 49.0000
-0.6230 0.4035 -0.1552 1.0000 34.0000
-0.6197 0.4068 -0.1549 1.0000 46.0000
-0.6156 0.4095 -0.1544 1.0000 35.0000
-0.6067 0.4090 -0.1523 1.0000 42.0000
-0.6081 0.4154 -0.1536 1.0000 38.0000
-0.6127 0.4241 -0.1560 1.0000 55.0000
-0.6077 0.4262 -0.1552 1.0000 38.0000
-0.5933 0.4215 -0.1513 1.0000 58.0000
-0.5884 0.4234 -0.1505 1.0000 33.0000
-0.5788 0.4219 -0.1481 1.0000 51.0000
-0.5738 0.4237 -0.1474 1.0000 33.0000
-0.5751 0.4301 -0.1487 1.0000 42.0000
-0.5740 0.4348 -0.1492 1.0000 37.0000
-0.5690 0.4366 -0.1484 1.0000 41.0000
-0.5579 0.4335 -0.1455 1.0000 24.0000
-0.5356 0.4214 -0.1387 1.0000 40.0000
-0.5254 0.4186 -0.1361 1.0000 25.0000
-0.5244 0.4231 -0.1367 1.0000 34.0000
-5.4200 4.4444 -1.8497 1.0000 22.0000
-5.3897 4.4751 -1.8486 2.0000 35.0000
-5.3525 4.5000 -1.8452 3.0000 43.0000
-5.3278 4.5353 -1.8463 5.0000 40.0000
-5.3086 4.5755 -1.8494 8.0000 56.0000
-5.2855 4.6124 -1.8512 11.0000 52.0000
-5.2694 4.6556 -1.8557 12.0000 67.0000
-5.2530 4.6988 -1.8601 16.0000 70.0000
-5.2341 4.7400 -1.8638 21.0000 120.0000
-5.2298 4.7949 -1.8729 25.0000 92.0000
-5.2116 4.8374 -1.8771 24.0000 80.0000
-5.1881 4.8752 -1.8794 23.0000 87.0000
-5.1588 4.9076 -1.8797 21.0000 65.0000
-5.1293 4.9399 -1.8799 20.0000 67.0000
-5.0975 4.9699 -1.8794 19.0000 84.0000
-5.0655 4.9997 -1.8789 19.0000 90.0000
-5.0334 5.0293 -1.8784 19.0000 85.0000
-5.0079 5.0656 -1.8805 20.0000 75.0000
-4.9733 5.0928 -1.8792 21.0000 90.0000
-4.9360 5.1170 -1.8768 22.0000 102.0000
-4.9031 5.1458 -1.8763 24.0000 77.0000
-4.8682 5.1722 -1.8750 22.0000 95.0000
-4.8350 5.2006 -1.8745 25.0000 94.0000
-4.7880 5.2138 -1.8685 22.0000 73.0000
-4.7397 5.2252 -1.8619 20.0000 64.0000
-4.6979 5.2434 -1.8580 19.0000 75.0000
-4.6560 5.2613 -1.8541 18.0000 70.0000
-4.6103 5.2745 -1.8486 19.0000 46.0000
-4.5716 5.2954 -1.8460 19.0000 65.0000
-4.5039 5.2822 -1.8314 23.0000 90.0000
-4.4646 5.3016 -1.8285 25.0000 83.0000
-4.4246 5.3200 -1.8254 23.0000 87.0000
-4.3821 5.3351 -1.8212 21.0000 95.0000
-4.3322 5.3409 -1.8139 20.0000 84.0000
-4.2903 5.3561 -1.8100 20.0000 79.0000
-4.2496 5.3724 -1.8066 20.0000 90.0000
-4.2088 5.3885 -1.8032 19.0000 90.0000
-4.1698 5.4066 -1.8006 20.0000 84.0000
-4.1348 5.4298 -1.7998 22.0000 83.0000
-4.0904 5.4404 -1.7948 24.0000 80.0000
-4.0552 5.4631 -1.7941 25.0000 77.0000
-4.0182 5.4832 -1.7925 23.0000 71.0000
-3.9799 5.5015 -1.7904 24.0000 88.0000
-3.9410 5.5187 -1.7881 23.0000 76.0000
-3.9054 5.5404 -1.7873 26.0000 82.0000
-3.8708 5.5635 -1.7870 24.0000 83.0000
-3.8366 5.5871 -1.7870 26.0000 65.0000
-3.8049 5.6146 -1.7883 25.0000 99.0000
-3.7704 5.6378 -1.7883 27.0000 77.0000
-3.7363 5.6616 -1.7886 23.0000 69.0000
-3.7015 5.6844 -1.7886 19.0000 85.0000
-3.6629 5.7014 -1.7868 21.0000 70.0000
-3.6216 5.7140 -1.7836 21.0000 72.0000
-3.5701 5.7099 -1.7753 25.0000 106.0000
-3.5371 5.7350 -1.7763 27.0000 67.0000
-3.4893 5.7359 -1.7698 30.0000 114.0000
-3.4485 5.7481 -1.7669 26.0000 112.0000
-3.4142 5.7708 -1.7674 24.0000 101.0000
-3.3816 5.7967 -1.7690 26.0000 92.0000
-3.3393 5.8056 -1.7654 27.0000 123.0000
-3.2969 5.8142 -1.7617 27.0000 119.0000
-3.2593 5.8310 -1.7607 27.0000 92.0000
-3.2207 5.8458 -1.7591 32.0000 135.0000
-3.1760 5.8493 -1.7541 25.0000 86.0000
-3.1314 5.8525 -1.7492 26.0000 84.0000
-3.0864 5.8546 -1.7440 28.0000 97.0000
-3.0455 5.8640 -1.7411 28.0000 102.0000
-2.9968 5.8576 -1.7335 22.0000 96.0000
-2.9608 5.8759 -1.7335 26.0000 87.0000
-2.9156 5.8758 -1.7280 24.0000 85.0000
-2.8846 5.9040 -1.7312 24.0000 91.0000
-2.8504 5.9259 -1.7325 25.0000 74.0000
-2.8074 5.9293 -1.7283 29.0000 93.0000
-2.7734 5.9517 -1.7299 26.0000 71.0000
-2.7352 5.9651 -1.7288 24.0000 79.0000
-2.6895 5.9615 -1.7228 26.0000 68.0000
-2.6564 5.9858 -1.7252 28.0000 61.0000
-2.6200 6.0029 -1.7254 28.0000 92.0000
-2.5793 6.0100 -1.7228 27.0000 115.0000
-2.5386 6.0168 -1.7202 28.0000 80.0000
-2.4994 6.0269 -1.7186 25.0000 67.0000
-2.4613 6.0395 -1.7178 22.0000 101.0000
-2.4242 6.0545 -1.7178 26.0000 76.0000
-2.3633 6.0090 -1.7004 19.0000 85.0000
-2.3271 6.0252 -1.7009 19.0000 91.0000
-2.2966 6.0565 -1.7058 30.0000 118.0000
-2.2601 6.0723 -1.7064 32.0000 128.0000
-2.2234 6.0879 -1.7069 31.0000 124.0000
-2.1857 6.1005 -1.7066 31.0000 106.0000
-2.1575 6.1402 -1.7142 28.0000 78.0000
-2.1182 6.1488 -1.7129 28.0000 68.0000
-2.0798 6.1598 -1.7124 26.0000 73.0000
-2.0429 6.1752 -1.7132 27.0000 74.0000
-2.0121 6.2097 -1.7194 32.0000 91.0000
-1.9702 6.2100 -1.7160 27.0000 59.0000
-1.9312 6.2192 -1.7152 29.0000 95.0000
-1.8893 6.2189 -1.7118 32.0000 84.0000
-1.8481 6.2202 -1.7090 28.0000 80.0000
-1.8193 6.2639 -1.7181 24.0000 77.0000
-1.7864 6.2944 -1.7236 24.0000 77.0000
-1.7745 6.4020 -1.7507 20.0000 72.0000
-1.7383 6.4239 -1.7539 19.0000 97.0000
-1.7040 6.4541 -1.7594 22.0000 96.0000
-1.6624 6.4569 -1.7573 18.0000 67.0000
-1.6190 6.4520 -1.7531 15.0000 100.0000
-1.5805 6.4665 -1.7544 16.0000 93.0000
-1.5413 6.4780 -1.7549 17.0000 101.0000
-1.5019 6.4892 -1.7554 16.0000 85.0000
-1.4627 6.5011 -1.7562 17.0000 93.0000
-1.4226 6.5090 -1.7560 16.0000 75.0000
-1.3834 6.5214 -1.7570 17.0000 90.0000
-1.3440 6.5326 -1.7578 17.0000 78.0000
-1.3035 6.5389 -1.7573 18.0000 106.0000
-1.2639 6.5496 -1.7580 18.0000 98.0000
-1.2235 6.5563 -1.7578 17.0000 84.0000
-1.1858 6.5779 -1.7617 19.0000 93.0000
-1.1449 6.5822 -1.7609 17.0000 98.0000
-1.1045 6.5891 -1.7609 18.0000 108.0000
-1.0636 6.5929 -1.7601 18.0000 95.0000
-1.0233 6.6002 -1.7604 18.0000 85.0000
-0.9826 6.6054 -1.7601 18.0000 96.0000
-0.9420 6.6104 -1.7599 19.0000 83.0000
-0.9012 6.6151 -1.7596 18.0000 79.0000
-0.8608 6.6215 -1.7599 18.0000 61.0000
-0.8211 6.6343 -1.7620 19.0000 106.0000
-0.7809 6.6440 -1.7633 20.0000 129.0000
-0.7400 6.6477 -1.7630 21.0000 98.0000
-0.7001 6.6608 -1.7654 19.0000 70.0000
-0.6600 6.6726 -1.7674 18.0000 93.0000
-0.6193 6.6794 -1.7682 16.0000 82.0000
-0.5786 6.6860 -1.7690 18.0000 92.0000
-0.5370 6.6827 -1.7672 16.0000 57.0000
-0.4955 6.6791 -1.7654 17.0000 78.0000
-0.4542 6.6782 -1.7643 16.0000 99.0000
-0.4129 6.6760 -1.7630 16.0000 116.0000
-0.3718 6.6746 -1.7620 18.0000 87.0000
-0.3309 6.6786 -1.7625 16.0000 98.0000
-0.2901 6.6844 -1.7635 19.0000 90.0000
-0.2487 6.6774 -1.7612 21.0000 110.0000
-0.2078 6.6807 -1.7617 21.0000 78.0000
-0.1668 6.6809 -1.7614 21.0000 104.0000
-0.1258 6.6808 -1.7612 18.0000 111.0000
-0.0848 6.6863 -1.7625 20.0000 111.0000
-0.0438 6.6876 -1.7627 21.0000 111.0000
-0.0028 6.6917 -1.7638 20.0000 94.0000
0.0383 6.6925 -1.7640 19.0000 122.0000
0.0791 6.6728 -1.7588 17.0000 84.0000
0.1201 6.6732 -1.7591 19.0000 108.0000
0.1612 6.6781 -1.7607 18.0000 86.0000
0.2022 6.6789 -1.7612 18.0000 93.0000
0.2431 6.6756 -1.7607 20.0000 111.0000
0.2841 6.6740 -1.7607 20.0000 99.0000
0.3252 6.6760 -1.7617 20.0000 101.0000
0.3661 6.6739 -1.7617 18.0000 101.0000
0.4071 6.6715 -1.7617 18.0000 80.0000
0.4483 6.6728 -1.7627 19.0000 103.0000
0.4893 6.6708 -1.7630 20.0000 103.0000
0.5306 6.6725 -1.7643 20.0000 87.0000
0.5719 6.6739 -1.7656 20.0000 94.0000
0.6124 6.6655 -1.7643 18.0000 109.0000
0.6543 6.6712 -1.7669 19.0000 102.0000
0.6973 6.6873 -1.7724 19.0000 69.0000
0.7392 6.6905 -1.7745 19.0000 84.0000
0.7803 6.6868 -1.7748 19.0000 62.0000
0.8224 6.6905 -1.7771 18.0000 65.0000
0.8648 6.6959 -1.7800 18.0000 75.0000
0.9061 6.6924 -1.7805 18.0000 70.0000
0.9470 6.6857 -1.7802 19.0000 78.0000
0.9887 6.6846 -1.7815 19.0000 55.0000
1.0311 6.6870 -1.7839 18.0000 81.0000
1.0731 6.6872 -1.7857 18.0000 80.0000
1.1151 6.6862 -1.7873 18.0000 71.0000
1.1563 6.6802 -1.7875 18.0000 85.0000
1.1978 6.6758 -1.7883 18.0000 90.0000
1.2396 6.6731 -1.7896 18.0000 70.0000
1.2820 6.6729 -1.7917 18.0000 59.0000
1.3246 6.6734 -1.7941 17.0000 86.0000
1.3668 6.6718 -1.7959 16.0000 89.0000
1.4088 6.6680 -1.7972 18.0000 68.0000
1.4496 6.6593 -1.7972 17.0000 62.0000
1.4911 6.6531 -1.7980 17.0000 79.0000
1.5317 6.6428 -1.7977 17.0000 73.0000
1.5733 6.6371 -1.7988 16.0000 80.0000
1.6140 6.6273 -1.7988 15.0000 61.0000
1.6544 6.6163 -1.7985 15.0000 77.0000
1.6964 6.6117 -1.8001 16.0000 67.0000
1.7374 6.6030 -1.8006 17.0000 73.0000
1.7787 6.5950 -1.8014 16.0000 99.0000
1.8201 6.5877 -1.8024 15.0000 71.0000
1.8600 6.5745 -1.8019 17.0000 54.0000
1.9006 6.5639 -1.8022 16.0000 66.0000
1.9419 6.5559 -1.8032 17.0000 83.0000
1.9829 6.5466 -1.8040 17.0000 75.0000
2.0236 6.5361 -1.8045 16.0000 66.0000
2.0625 6.5199 -1.8035 15.0000 89.0000
2.1079 6.5237 -1.8082 17.0000 80.0000
2.1466 6.5070 -1.8071 16.0000 68.0000
2.1881 6.4982 -1.8084 17.0000 69.0000
2.2273 6.4829 -1.8079 16.0000 109.0000
2.2651 6.4636 -1.8063 17.0000 83.0000
2.3070 6.4559 -1.8082 18.0000 102.0000
2.3462 6.4408 -1.8079 17.0000 78.0000
2.3857 6.4262 -1.8079 16.0000 83.0000
2.4268 6.4160 -1.8092 18.0000 60.0000
2.4665 6.4019 -1.8095 16.0000 96.0000
2.5053 6.3857 -1.8092 16.0000 72.0000
2.5452 6.3720 -1.8097 16.0000 55.0000
2.5872 6.3635 -1.8118 17.0000 72.0000
2.6295 6.3555 -1.8142 16.0000 76.0000
2.6695 6.3419 -1.8149 16.0000 98.0000
2.7084 6.3254 -1.8149 16.0000 88.0000
2.7483 6.3113 -1.8157 16.0000 69.0000
2.7897 6.3005 -1.8176 16.0000 81.0000
2.8295 6.2859 -1.8183 18.0000 93.0000
2.8689 6.2702 -1.8189 17.0000 77.0000
2.9077 6.2534 -1.8191 17.0000 98.0000
2.9468 6.2371 -1.8196 16.0000 92.0000
2.9884 6.2259 -1.8217 16.0000 71.0000
3.0274 6.2092 -1.8223 16.0000 85.0000
3.0628 6.1853 -1.8207 15.0000 93.0000
3.0999 6.1647 -1.8202 16.0000 61.0000
3.1403 6.1507 -1.8217 17.0000 71.0000
3.1779 6.1313 -1.8217 17.0000 67.0000
3.2169 6.1143 -1.8225 17.0000 92.0000
3.2534 6.0927 -1.8220 16.0000 104.0000
3.2893 6.0701 -1.8212 17.0000 91.0000
3.3316 6.0591 -1.8241 18.0000 83.0000
3.3711 6.0427 -1.8254 17.0000 63.0000
3.4091 6.0236 -1.8259 16.0000 80.0000
3.4465 6.0034 -1.8262 15.0000 89.0000
3.4886 5.9913 -1.8290 16.0000 57.0000
3.5307 5.9790 -1.8319 15.0000 63.0000
3.5742 5.9688 -1.8356 14.0000 55.0000
3.6123 5.9492 -1.8363 15.0000 65.0000
3.6503 5.9294 -1.8371 15.0000 69.0000
3.6912 5.9143 -1.8395 17.0000 64.0000
3.7331 5.9005 -1.8424 15.0000 89.0000
3.7708 5.8799 -1.8431 16.0000 75.0000
3.8083 5.8591 -1.8439 15.0000 56.0000
3.8511 5.8461 -1.8473 17.0000 85.0000
3.8923 5.8304 -1.8499 15.0000 58.0000
3.9312 5.8112 -1.8515 16.0000 58.0000
3.9696 5.7909 -1.8528 16.0000 76.0000
4.0072 5.7696 -1.8538 15.0000 74.0000
4.0403 5.7418 -1.8528 15.0000 49.0000
4.0772 5.7192 -1.8536 15.0000 66.0000
4.1235 5.7098 -1.8588 15.0000 69.0000
4.1664 5.6953 -1.8624 15.0000 49.0000
4.2001 5.6680 -1.8619 15.0000 69.0000
4.2418 5.6514 -1.8651 16.0000 71.0000
4.2863 5.6383 -1.8695 15.0000 65.0000
4.3308 5.6249 -1.8739 15.0000 73.0000
4.3724 5.6074 -1.8771 16.0000 93.0000
4.4103 5.5850 -1.8786 15.0000 80.0000
4.4548 5.5707 -1.8831 18.0000 73.0000
4.4955 5.5515 -1.8859 16.0000 84.0000
4.5424 5.5394 -1.8914 17.0000 64.0000
4.5812 5.5174 -1.8935 16.0000 64.0000
4.6218 5.4973 -1.8964 16.0000 62.0000
4.6648 5.4799 -1.9003 14.0000 44.0000
4.7085 5.4629 -1.9045 15.0000 45.0000
4.7552 5.4491 -1.9100 14.0000 75.0000
4.8046 5.4379 -1.9165 15.0000 73.0000
4.8539 5.4263 -1.9230 16.0000 70.0000
4.8988 5.4093 -1.9277 16.0000 49.0000
4.9417 5.3898 -1.9316 16.0000 69.0000
4.9885 5.3743 -1.9371 16.0000 68.0000
5.0266 5.3492 -1.9392 15.0000 67.0000
5.0660 5.3252 -1.9418 14.0000 67.0000
5.1019 5.2975 -1.9431 16.0000 77.0000
5.1377 5.2696 -1.9444 19.0000 87.0000
5.1679 5.2359 -1.9436 22.0000 103.0000
5.1972 5.2014 -1.9426 22.0000 83.0000
5.2208 5.1612 -1.9394 23.0000 95.0000
5.2365 5.1136 -1.9334 22.0000 97.0000
5.2497 5.0639 -1.9267 21.0000 69.0000
5.2541 5.0063 -1.9167 18.0000 87.0000
5.2805 4.9700 -1.9152 15.0000 72.0000
5.2989 4.9264 -1.9107 14.0000 70.0000
5.3240 4.8892 -1.9089 12.0000 52.0000
5.3260 4.8311 -1.8987 10.0000 59.0000
5.3470 4.7906 -1.8956 11.0000 76.0000
5.3618 4.7450 -1.8904 8.0000 90.0000
5.3741 4.6974 -1.8844 7.0000 84.0000
5.4021 4.6637 -1.8841 6.0000 86.0000
5.4218 4.6229 -1.8810 5.0000 68.0000
5.4205 4.5647 -1.8705 3.0000 76.0000
5.4477 4.5307 -1.8703 2.0000 64.0000
0.5826 0.4800 -0.1586 1.0000 71.0000
0.5922 0.4819 -0.1609 1.0000 47.0000
0.6020 0.4837 -0.1633 1.0000 48.0000
0.6079 0.4824 -0.1643 1.0000 43.0000
0.6185 0.4846 -0.1669 1.0000 38.0000
0.6253 0.4837 -0.1682 1.0000 37.0000
0.6275 0.4793 -0.1680 1.0000 51.0000
0.6358 0.4795 -0.1698 1.0000 59.0000
0.6442 0.4796 -0.1716 1.0000 35.0000
0.6533 0.4802 -0.1737 1.0000 36.0000
0.6703 0.4864 -0.1784 1.0000 44.0000
0.6851 0.4907 -0.1823 1.0000 49.0000
0.7023 0.4965 -0.1870 1.0000 63.0000
0.7148 0.4988 -0.1902 1.0000 30.0000
0.7258 0.4998 -0.1928 1.0000 38.0000
0.7321 0.4975 -0.1938 1.0000 43.0000
0.7383 0.4952 -0.1949 1.0000 41.0000
0.8099 0.5358 -0.2170 1.0000 30.0000
5.6578 3.6841 -1.7800 1.0000 40.0000
5.6080 3.6029 -1.7567 2.0000 37.0000
5.6128 3.5576 -1.7513 3.0000 30.0000
5.5928 3.4970 -1.7379 4.0000 38.0000
5.6035 3.4560 -1.7346 5.0000 74.0000
5.6155 3.4160 -1.7317 4.0000 36.0000
5.6157 3.3691 -1.7252 5.0000 46.0000
