9.2518 -42.3653 7.6718 16.0000 43.0000
9.2516 -43.6478 7.8927 12.0000 42.0000
9.3835 -45.6495 8.2426 11.0000 38.0000
9.1007 -45.6936 8.2403 17.0000 24.0000
9.0588 -46.9864 8.4624 8.0000 43.0000
4.1819 -23.2166 4.1888 2.0000 35.0000
4.0502 -23.3039 4.1999 20.0000 50.0000
3.8943 -23.2516 4.1862 16.0000 42.0000
3.7277 -23.1272 4.1598 16.0000 51.0000
3.3493 -21.6227 3.8876 14.0000 90.0000
2.6098 -17.5582 3.1602 22.0000 64.0000
2.4999 -17.5593 3.1576 19.0000 32.0000
2.3986 -17.6221 3.1661 17.0000 46.0000
2.2896 -17.6296 3.1649 19.0000 44.0000
2.2032 -17.8203 3.1963 19.0000 72.0000
2.0792 -17.7092 3.1743 16.0000 47.0000
2.0689 -18.6065 3.3311 10.0000 99.0000
1.8543 -17.6619 3.1616 9.0000 150.0000
1.8963 -19.1970 3.4314 10.0000 83.0000
1.6171 -17.4637 3.1228 15.0000 75.0000
1.5314 -17.7225 3.1668 14.0000 89.0000
1.4395 -17.9426 3.2041 10.0000 76.0000
1.3125 -17.7223 3.1637 11.0000 86.0000
1.2043 -17.7378 3.1651 10.0000 91.0000
1.1095 -17.9739 3.2055 13.0000 73.0000
1.0303 -18.5399 3.3042 11.0000 87.0000
0.9156 -18.5272 3.3009 11.0000 56.0000
0.8325 -19.2409 3.4258 11.0000 122.0000
0.7209 -19.4208 3.4567 13.0000 69.0000
0.6007 -19.3924 3.4510 18.0000 57.0000
0.5423 -21.8433 3.8822 9.0000 91.0000
0.3920 -20.9708 3.7280 12.0000 67.0000
0.2647 -21.0861 3.7480 9.0000 123.0000
0.1343 -20.9347 3.7211 12.0000 70.0000
0.0056 -19.7296 3.5087 6.0000 73.0000
-0.1152 -19.6870 3.5013 5.0000 67.0000
-0.2326 -19.4062 3.4520 12.0000 77.0000
-0.3526 -19.4576 3.4614 10.0000 70.0000
-0.4848 -19.9788 3.5537 15.0000 84.0000
-0.6057 -19.9213 3.5441 9.0000 90.0000
-0.7194 -19.6850 3.5032 12.0000 74.0000
-0.8391 -19.6556 3.4989 11.0000 68.0000
-0.5410 -11.0893 1.9891 8.0000 110.0000
-0.6092 -11.0877 1.9894 20.0000 60.0000
-0.6749 -11.0464 1.9828 8.0000 70.0000
-1.3520 -20.0850 3.5793 14.0000 55.0000
-1.4662 -19.9546 3.5578 7.0000 64.0000
-2.5059 -31.4520 5.5912 10.0000 80.0000
-2.7026 -31.4792 5.5988 15.0000 50.0000
-2.8926 -31.4287 5.5929 11.0000 64.0000
-3.0879 -31.4358 5.5974 7.0000 55.0000
-3.2832 -31.4398 5.6016 11.0000 79.0000
-3.2110 -29.0247 5.1772 4.0000 84.0000
-1.3396 -11.4716 2.0678 3.0000 93.0000
-1.4161 -11.5130 2.0767 3.0000 50.0000
-1.4995 -11.6028 2.0942 6.0000 52.0000
-1.6253 -11.9964 2.1659 8.0000 48.0000
-1.7015 -12.0047 2.1692 3.0000 75.0000
-1.7864 -12.0701 2.1827 9.0000 52.0000
-1.8505 -11.9946 2.1712 7.0000 53.0000
-1.9275 -12.0044 2.1751 11.0000 71.0000
-2.0177 -12.0915 2.1928 11.0000 70.0000
-2.1009 -12.1313 2.2021 7.0000 77.0000
-2.1718 -12.0988 2.1986 10.0000 46.0000
-2.2404 -12.0552 2.1933 7.0000 52.0000
-2.3237 -12.0896 2.2019 3.0000 66.0000
-2.3945 -12.0587 2.1990 4.0000 55.0000
-2.4869 -12.1335 2.2151 7.0000 45.0000
-2.5444 -12.0380 2.2007 9.0000 49.0000
-2.5396 -11.6613 2.1357 2.0000 99.0000
-2.5716 -11.4697 2.1039 12.0000 69.0000
-2.6253 -11.3817 2.0909 24.0000 73.0000
-2.6756 -11.2830 2.0760 28.0000 72.0000
-2.7408 -11.2501 2.0731 23.0000 52.0000
-2.8126 -11.2445 2.0751 29.0000 55.0000
-2.8676 -11.1727 2.0652 28.0000 47.0000
-2.9529 -11.2187 2.0769 23.0000 80.0000
-1.7873 -6.6269 1.2424 9.0000 64.0000
-1.8248 -6.6044 1.2404 11.0000 83.0000
-1.8527 -6.5486 1.2322 20.0000 111.0000
-1.8769 -6.4822 1.2222 9.0000 94.0000
-1.8920 -6.3875 1.2069 9.0000 157.0000
-1.8352 -6.0591 1.1486 17.0000 124.0000
-1.8761 -6.0600 1.1509 12.0000 95.0000
-1.8957 -5.9929 1.1406 15.0000 98.0000
-1.9316 -5.9784 1.1401 11.0000 105.0000
-1.9639 -5.9533 1.1377 9.0000 75.0000
-2.0538 -6.0998 1.1672 8.0000 111.0000
-2.0707 -6.0275 1.1561 6.0000 132.0000
-2.7878 -7.9542 1.5181 11.0000 238.0000
-2.8336 -7.9286 1.5165 6.0000 330.0000
-2.9139 -7.9981 1.5328 12.0000 232.0000
-2.3048 -6.2084 1.1999 2.0000 255.0000
-4.4288 -11.7059 2.2380 16.0000 96.0000
-4.5094 -11.7015 2.2424 21.0000 45.0000
-4.5790 -11.6681 2.2413 10.0000 48.0000
-9.4406 -23.6253 4.5149 11.0000 109.0000
-2.4296 -5.9761 1.1698 1.0000 148.0000
-3.6663 -8.8602 1.7225 13.0000 72.0000
-3.6850 -8.7531 1.7063 8.0000 70.0000
-3.5964 -8.3981 1.6427 14.0000 72.0000
-3.6179 -8.3072 1.6295 19.0000 66.0000
-3.6529 -8.2489 1.6225 17.0000 43.0000
-3.7002 -8.2191 1.6211 18.0000 53.0000
-3.7526 -8.2007 1.6220 19.0000 78.0000
-3.8431 -8.2642 1.6388 14.0000 105.0000
-3.9771 -8.4167 1.6732 11.0000 58.0000
-4.0790 -8.4969 1.6937 14.0000 44.0000
-4.2062 -8.6258 1.7238 13.0000 97.0000
-4.3832 -8.8504 1.7731 15.0000 92.0000
-4.4768 -8.9016 1.7886 20.0000 36.0000
-4.5412 -8.8933 1.7924 21.0000 64.0000
-4.6310 -8.9335 1.8059 17.0000 85.0000
-5.9766 -11.3572 2.2941 3.0000 87.0000
-5.9673 -11.1727 2.2646 3.0000 55.0000
-6.0329 -11.1307 2.2635 3.0000 37.0000
-6.0954 -11.0831 2.2614 5.0000 34.0000
-6.1148 -10.9586 2.2439 7.0000 50.0000
-6.1984 -10.9500 2.2498 9.0000 66.0000
-12.0856 -21.0454 4.3083 8.0000 47.0000
-12.2021 -20.9496 4.3040 14.0000 37.0000
-12.3244 -20.8642 4.3019 10.0000 50.0000
-7.0519 -11.7738 2.4509 9.0000 153.0000
-7.1179 -11.7202 2.4488 10.0000 152.0000
-7.2041 -11.6998 2.4537 10.0000 176.0000
-7.3686 -11.8040 2.4845 12.0000 198.0000
-7.3903 -11.6787 2.4679 7.0000 136.0000
-7.5528 -11.7749 2.4975 8.0000 157.0000
-7.1519 -11.0009 2.3447 5.0000 80.0000
-7.4469 -11.3022 2.4176 8.0000 147.0000
-7.6195 -11.4111 2.4504 13.0000 51.0000
-7.6932 -11.3699 2.4516 15.0000 79.0000
-7.7868 -11.3574 2.4590 18.0000 116.0000
-7.8743 -11.3352 2.4646 8.0000 103.0000
-7.0372 -9.9990 2.1872 2.0000 81.0000
-7.5622 -10.6059 2.3279 7.0000 141.0000
-7.6179 -10.5466 2.3251 17.0000 208.0000
-7.5859 -10.3677 2.2963 10.0000 91.0000
-6.5163 -8.7924 1.9612 4.0000 91.0000
-6.5754 -8.7594 1.9627 4.0000 72.0000
-7.3248 -9.6337 2.1652 2.0000 61.0000
-7.5238 -9.7703 2.2056 5.0000 84.0000
-7.3352 -9.4056 2.1345 22.0000 67.0000
-7.4050 -9.3759 2.1379 21.0000 189.0000
-7.4729 -9.3433 2.1409 16.0000 258.0000
-8.2244 -10.1544 2.3352 12.0000 213.0000
-8.0048 -9.7603 2.2569 9.0000 80.0000
-11.3317 -13.6444 3.1576 19.0000 99.0000
-10.6076 -12.6144 2.9366 16.0000 52.0000
-10.7915 -12.6743 2.9656 24.0000 60.0000
-11.1578 -12.9427 3.0435 22.0000 66.0000
-11.3400 -12.9920 3.0711 15.0000 97.0000
-11.4312 -12.9354 3.0742 15.0000 112.0000
-11.5156 -12.8709 3.0756 17.0000 117.0000
-11.4476 -12.6380 3.0371 10.0000 115.0000
-11.3552 -12.3824 2.9928 11.0000 105.0000
-12.9146 -13.9103 3.3769 17.0000 52.0000
-12.8607 -13.6830 3.3412 19.0000 183.0000
-12.7788 -13.4298 3.2988 19.0000 73.0000
-12.6977 -13.1816 3.2574 13.0000 174.0000
-12.1560 -12.4654 3.1004 31.0000 93.0000
-12.2177 -12.3759 3.0967 35.0000 53.0000
-12.3860 -12.3933 3.1198 24.0000 109.0000
-13.1644 -13.0114 3.2938 18.0000 99.0000
-13.5900 -13.2682 3.3790 21.0000 94.0000
-13.7946 -13.3035 3.4092 21.0000 65.0000
-13.9337 -13.2736 3.4232 8.0000 94.0000
-12.4613 -11.7261 3.0475 4.0000 75.0000
-12.6231 -11.7332 3.0692 13.0000 48.0000
-12.6862 -11.6476 3.0671 11.0000 69.0000
-12.7895 -11.5986 3.0747 14.0000 51.0000
-12.8729 -11.5311 3.0777 7.0000 51.0000
-25.6905 -22.7283 6.0755 18.0000 48.0000
-25.8621 -22.5988 6.0831 20.0000 57.0000
-26.0085 -22.4467 6.0850 22.0000 46.0000
-26.4433 -22.5404 6.1539 13.0000 48.0000
-26.6052 -22.3980 6.1595 13.0000 31.0000
-27.1125 -22.5422 6.2443 11.0000 31.0000
-34.5619 -28.3786 7.9107 10.0000 50.0000
-35.4025 -28.7068 8.0620 9.0000 48.0000
-34.1849 -27.3737 7.7476 9.0000 43.0000
-31.3791 -24.5012 7.0461 23.0000 41.0000
-31.5475 -24.3226 7.0503 11.0000 37.0000
-32.6326 -24.8414 7.2576 21.0000 43.0000
-32.0027 -24.0531 7.0853 20.0000 31.0000
-32.0753 -23.8012 7.0690 6.0000 34.0000
-30.3108 -21.9203 6.6225 8.0000 37.0000
-30.0448 -21.4484 6.5359 11.0000 47.0000
-29.8022 -21.0005 6.4554 4.0000 36.0000
-29.8052 -20.7300 6.4285 12.0000 41.0000
-30.0496 -20.6276 6.4537 13.0000 50.0000
-30.4226 -20.6102 6.5062 11.0000 63.0000
-30.6460 -20.4882 6.5269 13.0000 41.0000
-30.6930 -20.2483 6.5104 11.0000 47.0000
-12.4524 -8.1066 2.6507 13.0000 43.0000
-12.5069 -8.0332 2.6518 7.0000 40.0000
-8.0502 -5.1018 1.7122 1.0000 30.0000
-35.0613 -21.6162 7.2888 20.0000 36.0000
-33.4446 -20.3375 6.9283 8.0000 28.0000
-33.6254 -20.1658 6.9399 18.0000 38.0000
-46.1667 -25.7949 9.3488 18.0000 45.0000
-46.3422 -25.5212 9.3525 24.0000 52.0000
-46.4771 -25.2250 9.3483 19.0000 30.0000
-46.5537 -24.8981 9.3329 15.0000 36.0000
-46.6969 -24.6074 9.3311 16.0000 28.0000
-46.8829 -24.3390 9.3382 19.0000 27.0000
-47.1076 -24.0898 9.3533 14.0000 30.0000
-15.4237 -4.6838 2.8728 1.0000 31.0000
-18.0020 -5.1066 3.3295 2.0000 34.0000
-18.1165 -5.0192 3.3448 8.0000 31.0000
-18.0738 -4.8881 3.3314 4.0000 39.0000
-18.3939 -4.8537 3.3844 11.0000 33.0000
-16.5806 -4.2667 3.0492 8.0000 55.0000
-15.2720 -3.8303 2.8069 17.0000 40.0000
-15.2435 -3.7239 2.7975 35.0000 47.0000
-15.3073 -3.6401 2.8049 8.0000 89.0000
-18.7519 -4.3376 3.4237 10.0000 50.0000
-18.5120 -4.1626 3.3757 9.0000 89.0000
-18.7056 -4.0857 3.4060 12.0000 95.0000
-18.5299 -3.9284 3.3700 9.0000 87.0000
-18.3897 -3.7809 3.3405 9.0000 94.0000
-18.3246 -3.6505 3.3247 11.0000 58.0000
-38.2937 -7.3831 6.9030 13.0000 52.0000
-17.0562 -3.1808 3.0896 4.0000 53.0000
-17.0929 -3.0792 3.0927 7.0000 38.0000
-17.0949 -2.9714 3.0898 6.0000 52.0000
-17.0895 -2.8626 3.0856 8.0000 52.0000
-37.7477 -6.0834 6.7684 15.0000 43.0000
-17.3900 -2.6939 3.1332 6.0000 44.0000
-17.4588 -2.5950 3.1425 13.0000 41.0000
-17.1995 -2.4487 3.0936 13.0000 57.0000
-17.1752 -2.3378 3.0867 14.0000 55.0000
-17.5925 -2.2847 3.1583 6.0000 63.0000
-17.6864 -2.1867 3.1725 9.0000 33.0000
-38.7116 -4.5435 6.8992 19.0000 41.0000
-17.7422 -1.9728 3.1779 9.0000 44.0000
-38.8634 -4.0785 6.9167 20.0000 42.0000
-38.9749 -3.8486 6.9321 15.0000 55.0000
-41.2385 -3.8167 7.3285 24.0000 48.0000
-41.4300 -3.5782 7.3584 24.0000 35.0000
-41.6956 -3.3435 7.4015 7.0000 51.0000
-39.4190 -2.9177 6.9960 13.0000 42.0000
-39.4745 -2.6784 7.0027 10.0000 35.0000
-28.1290 -1.7356 4.9977 18.0000 38.0000
-27.8835 -1.5488 4.9526 16.0000 65.0000
-27.4960 -1.3581 4.8827 15.0000 45.0000
-27.4360 -1.1865 4.8707 14.0000 73.0000
-26.0846 -0.9678 4.6313 12.0000 38.0000
-26.1186 -0.8086 4.6363 16.0000 44.0000
-27.8824 -0.6919 4.9463 7.0000 59.0000
-27.6892 -0.5171 4.9116 10.0000 50.0000
-27.6909 -0.3472 4.9115 6.0000 65.0000
-27.6738 -0.1772 4.9082 10.0000 83.0000
-27.2518 -0.0073 4.8338 7.0000 74.0000
-25.9829 0.1524 4.6103 16.0000 96.0000
-25.9135 0.3110 4.5983 11.0000 65.0000
-18.2687 0.4432 3.2523 14.0000 39.0000
-18.2528 0.5549 3.2501 3.0000 140.0000
-16.4106 0.5995 2.9260 6.0000 95.0000
-16.3850 0.6993 2.9222 14.0000 73.0000
-39.0857 -1.9034 6.4489 20.0000 79.0000
-39.0572 -1.6619 6.4424 20.0000 58.0000
-27.7039 -1.0082 4.5784 9.0000 53.0000
-27.7589 -0.8397 4.5865 6.0000 86.0000
-26.0549 -0.6281 4.3063 19.0000 53.0000
-26.1391 -0.4696 4.3196 8.0000 79.0000
-25.4094 -0.3005 4.1995 14.0000 51.0000
-26.1518 -0.1489 4.3210 9.0000 64.0000
-25.3312 0.0113 4.1864 3.0000 96.0000
-17.6849 0.1168 2.9330 6.0000 107.0000
-15.9106 0.2028 2.6423 11.0000 52.0000
-18.5977 0.3510 3.0831 5.0000 152.0000
-18.6110 0.4655 3.0857 9.0000 93.0000
-18.4786 0.5757 3.0645 23.0000 48.0000
-18.4954 0.6898 3.0679 18.0000 85.0000
-15.7550 0.6846 2.6190 7.0000 98.0000
-18.3426 0.9097 3.0445 4.0000 120.0000
-23.9697 1.3358 3.9693 12.0000 99.0000
-23.9916 1.4847 3.9743 8.0000 94.0000
-23.9584 1.6303 3.9705 14.0000 96.0000
-20.4759 1.5198 3.3997 12.0000 90.0000
-20.4898 1.6473 3.4036 13.0000 78.0000
-20.7998 1.8007 3.4563 13.0000 104.0000
-28.2356 2.6186 4.6824 8.0000 80.0000
-15.7049 1.5544 2.6209 3.0000 104.0000
-29.1534 3.0650 4.8394 8.0000 81.0000
-28.3612 3.1578 4.7119 7.0000 118.0000
-26.5477 3.1210 4.4158 7.0000 57.0000
-26.5143 3.2821 4.4136 3.0000 59.0000
-16.8301 2.1888 2.8160 5.0000 104.0000
-16.8065 2.2907 2.8144 5.0000 122.0000
-26.8275 3.8235 4.4762 9.0000 89.0000
-23.6205 3.5146 3.9486 4.0000 150.0000
-24.6946 3.8294 4.1305 8.0000 74.0000
-27.1472 4.3803 4.5417 19.0000 88.0000
-27.1295 4.5484 4.5433 13.0000 78.0000
-27.1429 4.7221 4.5503 11.0000 84.0000
-27.3241 4.9265 4.5854 9.0000 47.0000
-14.3108 2.6716 2.4203 6.0000 92.0000
-17.8066 3.4371 3.0068 9.0000 76.0000
-17.9322 3.5756 3.0314 5.0000 113.0000
-17.8239 3.6679 3.0170 4.0000 126.0000
-18.8466 3.9989 3.1922 6.0000 59.0000
-25.2598 5.5214 4.2725 10.0000 117.0000
-24.4090 5.4926 4.1353 12.0000 52.0000
-25.5564 5.9158 4.3341 6.0000 79.0000
-25.1942 5.9950 4.2793 11.0000 63.0000
-25.1052 6.1369 4.2706 10.0000 49.0000
-18.2626 4.5835 3.1205 7.0000 48.0000
-18.2265 4.6935 3.1192 9.0000 43.0000
-18.1992 4.8058 3.1195 9.0000 42.0000
-23.9392 6.4784 4.0994 7.0000 91.0000
-23.8961 6.6244 4.0989 7.0000 94.0000
-16.3979 4.6548 2.8282 17.0000 35.0000
-16.2648 4.7250 2.8104 29.0000 57.0000
-15.8089 4.6980 2.7374 26.0000 72.0000
-15.7127 4.7745 2.7259 36.0000 63.0000
-15.7208 4.8826 2.7324 18.0000 54.0000
-21.7012 6.8857 3.7661 14.0000 39.0000
-21.6454 7.0144 3.7639 17.0000 37.0000
-15.8775 5.2535 2.7754 11.0000 40.0000
-15.8010 5.3360 2.7678 25.0000 33.0000
-15.7680 5.4329 2.7678 28.0000 51.0000
-15.7651 5.5403 2.7732 13.0000 95.0000
-18.4621 6.6154 3.2488 11.0000 69.0000
-19.8273 7.2421 3.4942 16.0000 46.0000
-19.8232 7.3788 3.5013 25.0000 64.0000
-19.8237 7.5178 3.5094 21.0000 73.0000
-22.1421 8.5526 3.9250 14.0000 84.0000
-15.7296 6.1873 2.8047 7.0000 104.0000
-15.5521 6.2279 2.7801 4.0000 84.0000
-15.4880 6.3128 2.7756 9.0000 77.0000
-15.4936 6.4262 2.7835 5.0000 73.0000
-20.3437 8.5841 3.6535 10.0000 64.0000
-21.5720 9.2586 3.8821 19.0000 80.0000
-19.7077 8.6022 3.5589 19.0000 72.0000
-19.8350 8.8030 3.5913 17.0000 73.0000
-19.6807 8.8795 3.5733 5.0000 122.0000
-26.7671 12.2744 4.8612 8.0000 128.0000
-25.7458 11.9979 4.6902 12.0000 104.0000
-24.2902 11.5015 4.4396 11.0000 103.0000
-24.3374 11.7072 4.4611 13.0000 68.0000
-23.6817 11.5713 4.3547 10.0000 111.0000
-19.6243 9.7387 3.6252 21.0000 75.0000
-11.8900 5.9922 2.2165 3.0000 92.0000
-11.8741 6.0759 2.2204 23.0000 64.0000
-11.8620 6.1618 2.2251 24.0000 57.0000
-11.8571 6.2520 2.2312 6.0000 57.0000
-11.7507 6.2883 2.2186 26.0000 83.0000
-11.6260 6.3137 2.2026 23.0000 94.0000
-11.5628 6.3715 2.1980 21.0000 86.0000
-11.5218 6.4414 2.1977 23.0000 75.0000
-11.5061 6.5256 2.2023 26.0000 88.0000
-11.5616 6.6512 2.2204 24.0000 60.0000
-11.9178 6.9537 2.2958 11.0000 97.0000
-13.3723 7.9126 2.5810 18.0000 69.0000
-11.4313 6.8593 2.2192 8.0000 174.0000
-11.2651 6.8539 2.1955 14.0000 75.0000
-11.0935 6.8432 2.1705 20.0000 77.0000
-10.9383 6.8405 2.1487 6.0000 152.0000
-9.0691 5.7495 1.7941 7.0000 92.0000
-10.5804 6.7987 2.0955 5.0000 129.0000
-8.7125 5.6746 1.7383 5.0000 149.0000
-8.6504 5.7100 1.7329 11.0000 101.0000
-8.5815 5.7405 1.7263 16.0000 116.0000
-8.5600 5.8024 1.7291 21.0000 137.0000
-8.4421 5.7984 1.7127 26.0000 131.0000
-8.3375 5.8022 1.6990 24.0000 107.0000
-8.2759 5.8351 1.6938 26.0000 101.0000
-8.1195 5.7997 1.6695 32.0000 67.0000
-8.0510 5.8257 1.6629 33.0000 99.0000
-7.9554 5.8312 1.6508 32.0000 82.0000
-7.8767 5.8482 1.6420 31.0000 71.0000
-7.7137 5.8009 1.6160 31.0000 88.0000
-7.6567 5.8320 1.6116 32.0000 83.0000
-7.5974 5.8608 1.6068 33.0000 89.0000
-7.5107 5.8678 1.5962 33.0000 65.0000
-7.4258 5.8752 1.5860 31.0000 111.0000
-7.3380 5.8794 1.5752 30.0000 106.0000
-7.2336 5.8689 1.5608 30.0000 102.0000
-7.1235 5.8525 1.5451 31.0000 70.0000
-7.0783 5.8885 1.5432 31.0000 100.0000
-7.0028 5.8988 1.5348 30.0000 80.0000
-6.9252 5.9064 1.5259 30.0000 83.0000
-6.8268 5.8953 1.5124 33.0000 130.0000
-6.7719 5.9208 1.5084 33.0000 75.0000
-6.6978 5.9289 1.5001 27.0000 79.0000
-6.6304 5.9422 1.4934 27.0000 72.0000
-6.5587 5.9510 1.4856 29.0000 76.0000
-6.4741 5.9470 1.4749 29.0000 70.0000
-6.3855 5.9383 1.4633 29.0000 71.0000
-6.2979 5.9293 1.4518 27.0000 63.0000
-6.2307 5.9386 1.4448 28.0000 72.0000
-6.2076 5.9897 1.4479 25.0000 84.0000
-6.1827 6.0394 1.4506 27.0000 83.0000
-6.1196 6.0516 1.4447 26.0000 82.0000
-6.0426 6.0492 1.4354 28.0000 92.0000
-5.9492 6.0293 1.4223 25.0000 129.0000
-5.8777 6.0303 1.4142 27.0000 69.0000
-5.8166 6.0414 1.4086 27.0000 64.0000
-5.7400 6.0355 1.3992 27.0000 78.0000
-5.6690 6.0347 1.3911 29.0000 114.0000
-5.6165 6.0527 1.3874 29.0000 103.0000
-5.5679 6.0747 1.3846 30.0000 98.0000
-5.5192 6.0963 1.3819 27.0000 106.0000
-5.4594 6.1051 1.3764 28.0000 70.0000
-5.4035 6.1177 1.3719 28.0000 85.0000
-5.3561 6.1396 1.3694 27.0000 68.0000
-5.3029 6.1544 1.3655 28.0000 65.0000
-5.2234 6.1380 1.3550 30.0000 116.0000
-5.1806 6.1639 1.3537 31.0000 98.0000
-5.1162 6.1637 1.3469 25.0000 106.0000
-5.0733 6.1889 1.3457 26.0000 71.0000
-4.6980 5.8034 1.2578 21.0000 263.0000
-4.5329 5.6703 1.2238 29.0000 100.0000
-4.4845 5.6810 1.2203 28.0000 87.0000
-4.4368 5.6920 1.2169 29.0000 48.0000
-4.3910 5.7051 1.2140 29.0000 85.0000
-4.3416 5.7131 1.2101 23.0000 67.0000
-4.3124 5.7475 1.2117 27.0000 69.0000
-4.2805 5.7786 1.2127 27.0000 59.0000
-4.2497 5.8111 1.2140 25.0000 81.0000
-4.2203 5.8459 1.2157 21.0000 81.0000
-4.1952 5.8870 1.2188 20.0000 72.0000
-4.1823 5.9457 1.2255 20.0000 78.0000
-4.1694 6.0053 1.2322 20.0000 85.0000
-4.2368 6.1829 1.2625 12.0000 365.0000
-4.3547 6.4393 1.3081 17.0000 190.0000
-4.2658 6.3920 1.2936 21.0000 122.0000
-4.2026 6.3818 1.2864 23.0000 82.0000
-4.1274 6.3521 1.2756 25.0000 90.0000
-4.0713 6.3507 1.2704 21.0000 77.0000
-4.0227 6.3605 1.2675 20.0000 82.0000
-3.9732 6.3684 1.2643 25.0000 55.0000
-3.9066 6.3481 1.2557 22.0000 76.0000
-3.8481 6.3399 1.2496 26.0000 64.0000
-3.7924 6.3354 1.2442 26.0000 78.0000
-3.7434 6.3416 1.2410 28.0000 93.0000
-3.6965 6.3508 1.2384 27.0000 79.0000
-3.6501 6.3605 1.2360 26.0000 103.0000
-3.5857 6.3381 1.2276 30.0000 86.0000
-3.5386 6.3454 1.2248 28.0000 83.0000
-3.4867 6.3436 1.2204 28.0000 90.0000
-3.4383 6.3475 1.2172 29.0000 122.0000
-3.3910 6.3529 1.2143 30.0000 87.0000
-3.3450 6.3604 1.2119 28.0000 110.0000
-3.2978 6.3651 1.2089 28.0000 72.0000
-3.2528 6.3738 1.2068 28.0000 63.0000
-3.2008 6.3680 1.2022 28.0000 98.0000
-3.1546 6.3734 1.1996 26.0000 90.0000
-3.1077 6.3767 1.1967 26.0000 100.0000
-3.0548 6.3672 1.1915 28.0000 97.0000
-3.0048 6.3626 1.1873 29.0000 94.0000
-2.9590 6.3666 1.1847 28.0000 102.0000
-2.9129 6.3694 1.1819 28.0000 79.0000
-2.8665 6.3709 1.1790 27.0000 70.0000
-2.8213 6.3749 1.1766 29.0000 97.0000
-2.7774 6.3812 1.1747 30.0000 123.0000
-2.7347 6.3899 1.1732 30.0000 77.0000
-2.6924 6.3993 1.1719 27.0000 74.0000
-2.6482 6.4039 1.1698 27.0000 100.0000
-2.6036 6.4072 1.1675 27.0000 80.0000
-2.5566 6.4038 1.1641 27.0000 94.0000
-2.5162 6.4166 1.1637 27.0000 71.0000
-2.4721 6.4200 1.1615 26.0000 95.0000
-2.4275 6.4212 1.1591 25.0000 86.0000
-2.3870 6.4332 1.1586 25.0000 101.0000
-2.3448 6.4403 1.1573 25.0000 101.0000
-2.2969 6.4313 1.1533 27.0000 86.0000
-2.2532 6.4332 1.1512 27.0000 96.0000
-2.2133 6.4459 1.1510 26.0000 108.0000
-2.1718 6.4538 1.1501 28.0000 83.0000
-2.1307 6.4623 1.1493 30.0000 91.0000
-2.0898 6.4715 1.1486 29.0000 89.0000
-2.0485 6.4795 1.1478 31.0000 118.0000
-2.0070 6.4863 1.1468 29.0000 74.0000
-1.9663 6.4957 1.1463 29.0000 64.0000
-1.9250 6.5029 1.1455 29.0000 94.0000
-1.8815 6.5022 1.1434 30.0000 123.0000
-1.8386 6.5032 1.1417 30.0000 98.0000
-1.7960 6.5049 1.1400 29.0000 93.0000
-1.7540 6.5081 1.1387 28.0000 104.0000
-1.7095 6.5016 1.1358 28.0000 66.0000
-1.6679 6.5053 1.1347 30.0000 98.0000
-1.6248 6.5029 1.1326 29.0000 95.0000
-1.5821 6.5013 1.1306 29.0000 84.0000
-1.5399 6.5013 1.1290 27.0000 90.0000
-1.4896 6.4654 1.1214 24.0000 152.0000
-1.4688 6.5592 1.1357 18.0000 76.0000
-1.4258 6.5555 1.1336 21.0000 89.0000
-1.3827 6.5506 1.1313 22.0000 80.0000
-1.3401 6.5474 1.1294 22.0000 53.0000
-1.2957 6.5342 1.1258 23.0000 76.0000
-1.2521 6.5236 1.1227 24.0000 86.0000
-1.2073 6.5059 1.1185 31.0000 111.0000
-1.1669 6.5103 1.1180 30.0000 109.0000
-1.1269 6.5173 1.1180 28.0000 95.0000
-1.0862 6.5202 1.1174 28.0000 87.0000
-1.0450 6.5190 1.1161 29.0000 106.0000
-1.0037 6.5175 1.1148 29.0000 99.0000
-0.9627 6.5167 1.1137 26.0000 87.0000
-0.9230 6.5244 1.1140 27.0000 90.0000
-0.8829 6.5300 1.1140 27.0000 92.0000
-0.8425 6.5323 1.1135 26.0000 98.0000
-0.8009 6.5256 1.1116 26.0000 103.0000
-0.7601 6.5235 1.1104 27.0000 106.0000
-0.7202 6.5300 1.1108 26.0000 94.0000
-0.6803 6.5353 1.1109 27.0000 74.0000
-0.6399 6.5364 1.1104 29.0000 92.0000
-0.5990 6.5324 1.1091 28.0000 66.0000
-0.5579 6.5241 1.1072 27.0000 92.0000
-0.5182 6.5313 1.1078 28.0000 88.0000
-0.4784 6.5383 1.1085 29.0000 102.0000
-0.4385 6.5441 1.1090 27.0000 101.0000
-0.3986 6.5516 1.1098 28.0000 73.0000
-0.3589 6.5638 1.1114 31.0000 90.0000
-0.3185 6.5619 1.1108 32.0000 89.0000
-0.2781 6.5608 1.1103 30.0000 95.0000
-0.2382 6.5722 1.1119 31.0000 102.0000
-0.1982 6.5844 1.1137 32.0000 124.0000
-0.1578 6.5885 1.1141 30.0000 93.0000
-0.1172 6.5794 1.1125 30.0000 103.0000
-0.0768 6.5800 1.1125 32.0000 94.0000
-0.0365 6.5863 1.1135 31.0000 81.0000
0.0039 6.5874 1.1137 27.0000 91.0000
0.0444 6.5961 1.1151 29.0000 90.0000
0.0849 6.5967 1.1153 29.0000 106.0000
0.1253 6.5921 1.1146 26.0000 96.0000
0.1660 6.6021 1.1164 28.0000 98.0000
0.2067 6.6079 1.1175 28.0000 89.0000
0.2477 6.6193 1.1196 27.0000 107.0000
0.2887 6.6265 1.1211 27.0000 105.0000
0.3295 6.6276 1.1216 29.0000 107.0000
0.3703 6.6274 1.1219 27.0000 104.0000
0.4114 6.6329 1.1232 30.0000 104.0000
0.4521 6.6292 1.1230 29.0000 122.0000
0.4929 6.6293 1.1235 28.0000 105.0000
0.5345 6.6370 1.1253 28.0000 103.0000
0.5763 6.6463 1.1274 30.0000 80.0000
0.6178 6.6505 1.1287 27.0000 81.0000
0.6591 6.6515 1.1295 28.0000 82.0000
0.7001 6.6493 1.1298 26.0000 58.0000
0.7413 6.6488 1.1305 24.0000 95.0000
0.7836 6.6569 1.1326 27.0000 68.0000
0.8252 6.6578 1.1336 25.0000 80.0000
0.8679 6.6673 1.1360 24.0000 100.0000
0.9095 6.6668 1.1368 23.0000 105.0000
0.9704 6.8017 1.1601 19.0000 190.0000
0.9982 6.7020 1.1446 22.0000 132.0000
1.0320 6.6489 1.1368 25.0000 79.0000
1.0742 6.6512 1.1383 23.0000 125.0000
1.1240 6.6980 1.1472 20.0000 165.0000
1.1955 6.8660 1.1763 17.0000 273.0000
1.2124 6.7187 1.1530 21.0000 122.0000
1.2438 6.6587 1.1442 24.0000 107.0000
1.2867 6.6616 1.1460 23.0000 75.0000
1.3295 6.6633 1.1476 25.0000 90.0000
1.3735 6.6705 1.1502 25.0000 76.0000
1.4165 6.6716 1.1518 27.0000 101.0000
1.4559 6.6560 1.1507 27.0000 112.0000
1.5030 6.6749 1.1554 24.0000 115.0000
1.5591 6.7309 1.1664 22.0000 71.0000
1.5948 6.6982 1.1625 21.0000 91.0000
1.6394 6.7026 1.1649 19.0000 69.0000
1.6868 6.7173 1.1692 20.0000 49.0000
1.7344 6.7317 1.1734 21.0000 79.0000
1.7877 6.7667 1.1811 21.0000 84.0000
1.8228 6.7318 1.1771 22.0000 76.0000
1.8572 6.6958 1.1729 24.0000 60.0000
1.8985 6.6852 1.1730 27.0000 110.0000
1.9442 6.6896 1.1758 25.0000 77.0000
1.9933 6.7049 1.1805 26.0000 72.0000
2.0367 6.7001 1.1818 25.0000 78.0000
2.0825 6.7026 1.1844 27.0000 85.0000
2.1301 6.7104 1.1879 27.0000 94.0000
2.1852 6.7404 1.1954 24.0000 90.0000
2.2331 6.7465 1.1988 24.0000 111.0000
2.2792 6.7467 1.2012 25.0000 135.0000
2.3250 6.7456 1.2034 24.0000 70.0000
2.3696 6.7406 1.2051 25.0000 95.0000
2.4303 6.7798 1.2144 23.0000 88.0000
2.4806 6.7888 1.2187 23.0000 73.0000
2.5291 6.7920 1.2219 22.0000 102.0000
2.5753 6.7883 1.2240 21.0000 89.0000
2.6229 6.7881 1.2267 21.0000 161.0000
2.6743 6.7966 1.2311 20.0000 165.0000
2.7218 6.7948 1.2337 21.0000 173.0000
2.7657 6.7834 1.2347 21.0000 149.0000
2.8292 6.8192 1.2441 23.0000 89.0000
2.8790 6.8208 1.2475 23.0000 102.0000
2.9286 6.8211 1.2507 21.0000 108.0000
2.9743 6.8121 1.2523 26.0000 68.0000
3.0217 6.8063 1.2546 26.0000 75.0000
3.0764 6.8164 1.2597 25.0000 77.0000
3.1383 6.8414 1.2677 25.0000 79.0000
3.1948 6.8533 1.2733 29.0000 109.0000
3.2043 6.7649 1.2609 23.0000 97.0000
3.1144 6.4721 1.2112 16.0000 43.0000
3.1233 6.3899 1.1997 23.0000 103.0000
3.1576 6.3609 1.1979 22.0000 106.0000
3.1935 6.3352 1.1968 22.0000 122.0000
3.2395 6.3296 1.1994 20.0000 95.0000
3.2892 6.3306 1.2033 20.0000 71.0000
3.3602 6.3714 1.2146 23.0000 74.0000
3.6511 6.8214 1.3021 23.0000 212.0000
3.7738 6.9481 1.3300 22.0000 127.0000
3.9654 7.1953 1.3806 18.0000 296.0000
4.2238 7.5542 1.4526 23.0000 76.0000
4.2700 7.5281 1.4526 25.0000 88.0000
4.3289 7.5240 1.4568 22.0000 88.0000
4.3696 7.4879 1.4550 22.0000 117.0000
4.3993 7.4338 1.4498 20.0000 118.0000
4.4677 7.4447 1.4571 20.0000 204.0000
4.6338 7.6153 1.4951 20.0000 248.0000
4.6815 7.5884 1.4955 19.0000 207.0000
4.8159 7.7001 1.5226 19.0000 170.0000
4.7727 7.5279 1.4950 13.0000 233.0000
4.8412 7.5333 1.5018 10.0000 198.0000
4.8647 7.4688 1.4950 6.0000 139.0000
3.9522 5.9867 1.2098 3.0000 68.0000
3.9795 5.9484 1.2070 6.0000 55.0000
4.0171 5.9255 1.2073 8.0000 79.0000
4.8650 7.0827 1.4424 11.0000 104.0000
5.0938 7.3193 1.4956 10.0000 170.0000
4.1823 5.9312 1.2235 8.0000 80.0000
4.2295 5.9207 1.2266 10.0000 60.0000
4.2733 5.9050 1.2287 10.0000 88.0000
4.4179 6.0267 1.2588 12.0000 88.0000
4.4213 5.9543 1.2496 7.0000 112.0000
4.4542 5.9224 1.2486 12.0000 68.0000
4.4869 5.8902 1.2476 13.0000 111.0000
4.4958 5.8274 1.2403 9.0000 69.0000
4.5169 5.7810 1.2365 8.0000 88.0000
5.6952 7.1982 1.5385 12.0000 142.0000
5.7331 7.1555 1.5369 13.0000 136.0000
5.1628 6.3629 1.3770 10.0000 98.0000
5.2230 6.3571 1.3825 15.0000 291.0000
5.2038 6.2551 1.3677 12.0000 284.0000
4.7965 5.6939 1.2542 13.0000 291.0000
4.7078 5.5194 1.2230 15.0000 159.0000
4.7448 5.4942 1.2238 18.0000 135.0000
4.7888 5.4768 1.2264 16.0000 203.0000
5.0480 5.7023 1.2822 16.0000 233.0000
5.1059 5.6970 1.2879 13.0000 365.0000
5.3277 5.8717 1.3335 10.0000 474.0000
4.9365 5.3737 1.2300 14.0000 234.0000
4.8975 5.2659 1.2127 18.0000 178.0000
5.1590 5.4794 1.2675 19.0000 210.0000
5.3354 5.5977 1.3015 21.0000 106.0000
5.4403 5.6380 1.3181 15.0000 418.0000
4.8653 4.9804 1.1751 10.0000 73.0000
5.4237 5.4845 1.2982 15.0000 323.0000
5.4852 5.4790 1.3047 17.0000 185.0000
5.5138 5.4404 1.3036 17.0000 220.0000
5.3132 5.1784 1.2500 17.0000 243.0000
5.1672 4.9746 1.2096 20.0000 135.0000
5.2004 4.9455 1.2102 13.0000 328.0000
5.1559 4.8432 1.1934 14.0000 148.0000
5.1653 4.7927 1.1889 11.0000 105.0000
5.2629 4.8236 1.2041 9.0000 96.0000
5.3107 4.8078 1.2081 13.0000 99.0000
5.2901 4.7304 1.1971 13.0000 112.0000
5.2340 4.6227 1.1785 21.0000 81.0000
5.2556 4.5846 1.1771 22.0000 72.0000
5.3000 4.5665 1.1806 14.0000 96.0000
5.3941 4.5902 1.1949 6.0000 92.0000
17.2915 14.5362 3.7370 11.0000 101.0000
19.1334 15.8855 4.1106 12.0000 107.0000
19.0863 15.6495 4.0800 11.0000 92.0000
19.1513 15.5072 4.0735 12.0000 55.0000
19.8064 15.8375 4.1911 12.0000 132.0000
16.3933 12.9440 3.4580 17.0000 87.0000
16.3285 12.7309 3.4280 9.0000 125.0000
15.9606 12.2873 3.3358 11.0000 77.0000
15.9304 12.1091 3.3141 12.0000 70.0000
15.8300 11.8802 3.2784 18.0000 61.0000
15.6727 11.6125 3.2315 14.0000 67.0000
17.6981 12.9459 3.6285 8.0000 88.0000
16.6060 11.9913 3.3916 10.0000 83.0000
16.6745 11.8857 3.3907 13.0000 140.0000
13.4592 9.4695 2.7316 10.0000 105.0000
13.2601 9.2083 2.6803 17.0000 54.0000
13.4075 9.1893 2.6984 13.0000 137.0000
13.5552 9.1687 2.7165 20.0000 65.0000
10.3037 6.8772 2.0646 12.0000 76.0000
10.2492 6.7504 2.0457 22.0000 50.0000
10.2648 6.6707 2.0406 23.0000 81.0000
10.2516 6.5730 2.0301 24.0000 60.0000
10.2508 6.4841 2.0222 23.0000 40.0000
10.2569 6.4002 2.0157 25.0000 43.0000
10.2767 6.3252 2.0120 23.0000 66.0000
10.3077 6.2574 2.0105 25.0000 55.0000
10.3358 6.1880 2.0086 32.0000 60.0000
10.3854 6.1315 2.0109 35.0000 65.0000
10.5005 6.1128 2.0256 28.0000 56.0000
10.5694 6.0664 2.0316 8.0000 136.0000
14.6979 8.3171 2.8023 12.0000 98.0000
14.1428 7.8888 2.6886 14.0000 120.0000
14.1356 7.7714 2.6782 9.0000 75.0000
15.1192 8.1918 2.8528 8.0000 120.0000
15.2840 8.1603 2.8741 17.0000 54.0000
15.3696 8.0852 2.8807 20.0000 73.0000
15.4882 8.0266 2.8935 18.0000 83.0000
15.4993 7.9121 2.8866 5.0000 132.0000
18.6536 9.3788 3.4565 11.0000 82.0000
18.7391 9.2781 3.4617 14.0000 116.0000
18.7823 9.1565 3.4593 11.0000 74.0000
17.2644 8.2857 3.1731 19.0000 58.0000
17.2551 8.1513 3.1622 8.0000 77.0000
19.0014 8.8342 3.4690 20.0000 69.0000
18.8210 8.6103 3.4267 25.0000 45.0000
18.7565 8.4420 3.4057 17.0000 70.0000
18.6726 8.2668 3.3814 25.0000 54.0000
18.6262 8.1099 3.3641 26.0000 43.0000
18.6429 7.9815 3.3583 8.0000 47.0000
27.5795 11.6084 4.9392 8.0000 85.0000
29.3973 12.1618 5.2491 11.0000 72.0000
23.6563 9.4482 4.2097 6.0000 96.0000
20.0080 7.8488 3.5571 16.0000 55.0000
20.0144 7.7100 3.5498 10.0000 78.0000
20.0511 7.5832 3.5481 8.0000 56.0000
20.0279 7.4342 3.5359 14.0000 60.0000
20.1427 7.3365 3.5481 15.0000 84.0000
20.3332 7.2649 3.5735 14.0000 65.0000
19.9602 6.9938 3.5010 9.0000 88.0000
20.1119 6.9087 3.5199 19.0000 64.0000
21.1415 7.1178 3.6908 11.0000 63.0000
20.0256 6.6054 3.4906 13.0000 59.0000
19.6939 6.3623 3.4266 10.0000 71.0000
21.3518 6.7536 3.7050 12.0000 79.0000
21.2278 6.5714 3.6767 9.0000 58.0000
19.6622 5.9547 3.4017 13.0000 45.0000
19.8734 5.8857 3.4316 13.0000 55.0000
19.9708 5.7815 3.4421 18.0000 62.0000
21.7322 6.1473 3.7362 14.0000 84.0000
21.6078 5.9692 3.7087 12.0000 102.0000
21.6183 5.8295 3.7043 15.0000 97.0000
21.7920 5.7332 3.7278 13.0000 87.0000
22.1279 5.6766 3.7788 17.0000 78.0000
22.1221 5.5307 3.7720 11.0000 61.0000
22.1978 5.4051 3.7791 9.0000 57.0000
22.2238 5.2672 3.7780 20.0000 65.0000
23.1692 5.3414 3.9316 10.0000 140.0000
23.1505 5.1877 3.9231 15.0000 68.0000
23.0035 5.0067 3.8931 20.0000 34.0000
23.1082 4.8812 3.9056 13.0000 49.0000
22.1429 4.5355 3.7391 20.0000 40.0000
22.1974 4.4049 3.7437 8.0000 81.0000
23.4364 4.5016 3.9460 14.0000 61.0000
23.5955 4.3822 3.9680 25.0000 36.0000
23.7774 4.2652 3.9939 24.0000 45.0000
35.2420 6.0995 5.8971 10.0000 46.0000
29.3041 4.8866 4.9041 22.0000 42.0000
29.2683 4.6962 4.8932 10.0000 69.0000
36.2065 5.5821 6.0394 14.0000 34.0000
29.3169 4.3356 4.8921 3.0000 64.0000
34.1355 4.8346 5.6856 12.0000 40.0000
34.2134 4.6317 5.6937 8.0000 37.0000
34.4682 4.4510 5.7312 8.0000 55.0000
34.6516 4.2587 5.7571 21.0000 36.0000
41.6704 0.2380 6.8651 7.0000 34.0000
41.6908 -0.0177 6.8684 26.0000 22.0000
41.0041 -0.2690 6.7559 18.0000 47.0000
42.2509 -0.5364 6.9607 24.0000 58.0000
40.8379 -0.7692 6.7297 13.0000 67.0000
40.4092 -1.0092 6.6603 22.0000 50.0000
26.0686 -0.8116 4.3094 10.0000 39.0000
26.0138 -0.9697 4.3013 17.0000 43.0000
26.0133 -1.1296 4.3023 6.0000 72.0000
25.9635 -1.2870 4.2953 10.0000 67.0000
19.1062 -1.0650 3.1708 15.0000 76.0000
19.0196 -1.1773 3.1577 21.0000 81.0000
19.4245 -1.3220 3.2255 21.0000 78.0000
18.1977 -1.3509 3.0252 12.0000 39.0000
18.2127 -1.4644 3.0291 19.0000 61.0000
20.0064 -1.7321 3.3258 15.0000 78.0000
20.2666 -1.8800 3.3704 10.0000 122.0000
18.5195 -1.8327 3.0846 7.0000 138.0000
18.3322 -1.9278 3.0556 8.0000 116.0000
24.5783 -2.7368 4.0879 12.0000 111.0000
18.2434 -2.1451 3.0451 22.0000 73.0000
18.2554 -2.2602 3.0493 9.0000 79.0000
18.7227 -2.4347 3.1289 5.0000 145.0000
18.7083 -2.5497 3.1291 7.0000 161.0000
20.0425 -2.8568 3.3526 6.0000 93.0000
20.1544 -2.9991 3.3742 4.0000 134.0000
23.1060 -3.5831 3.8669 11.0000 85.0000
24.1173 -3.8916 4.0386 16.0000 99.0000
27.6064 -4.6283 4.6226 15.0000 125.0000
24.2058 -4.2112 4.0615 12.0000 131.0000
17.7610 -3.2027 2.9924 9.0000 57.0000
17.6498 -3.2946 2.9772 12.0000 106.0000
17.5866 -3.3947 2.9700 16.0000 69.0000
24.9197 -4.9684 4.1994 22.0000 59.0000
19.9408 -4.1033 3.3712 30.0000 68.0000
20.0060 -4.2449 3.3865 17.0000 102.0000
17.8740 -3.9074 3.0331 15.0000 54.0000
17.8429 -4.0155 3.0320 12.0000 56.0000
18.7217 -4.3340 3.1841 13.0000 137.0000
16.5059 -3.9281 2.8152 24.0000 42.0000
16.5275 -4.0405 2.8230 8.0000 44.0000
19.0187 -4.7732 3.2483 7.0000 107.0000
16.6573 -4.2896 2.8536 19.0000 98.0000
18.0084 -4.7554 3.0872 11.0000 150.0000
18.2304 -4.9339 3.1299 21.0000 85.0000
17.4266 -4.8313 2.9984 9.0000 81.0000
16.9362 -4.8075 2.9199 14.0000 110.0000
16.4796 -4.8972 2.8521 3.0000 130.0000
16.7164 -5.0794 2.8979 11.0000 88.0000
17.5105 -5.4382 3.0396 10.0000 78.0000
17.6179 -5.5903 3.0639 21.0000 78.0000
18.0696 -5.8559 3.1477 14.0000 72.0000
18.0914 -5.9859 3.1577 22.0000 76.0000
18.0758 -6.1040 3.1614 6.0000 101.0000
18.0446 -6.2171 3.1626 13.0000 90.0000
18.0219 -6.3332 3.1653 14.0000 129.0000
14.4172 -5.1663 2.5444 15.0000 114.0000
14.3528 -5.2429 2.5387 21.0000 63.0000
14.2954 -5.3215 2.5344 10.0000 100.0000
14.5799 -5.5295 2.5900 7.0000 162.0000
14.6221 -5.6484 2.6035 11.0000 107.0000
14.5302 -5.7156 2.5934 14.0000 50.0000
14.4976 -5.8057 2.5939 18.0000 54.0000
14.5156 -5.9165 2.6035 22.0000 63.0000
14.5273 -6.0255 2.6120 21.0000 120.0000
14.3092 -6.0382 2.5798 23.0000 49.0000
14.2755 -6.1275 2.5805 20.0000 75.0000
14.2485 -6.2197 2.5824 19.0000 62.0000
17.2859 -7.6719 3.1341 9.0000 150.0000
26.3814 -11.9022 4.7784 13.0000 44.0000
26.1518 -11.9923 4.7502 16.0000 43.0000
14.9377 -6.9618 2.7355 21.0000 46.0000
14.9170 -7.0639 2.7395 21.0000 54.0000
14.9072 -7.1715 2.7457 18.0000 46.0000
14.9126 -7.2871 2.7547 18.0000 84.0000
14.9471 -7.4179 2.7693 12.0000 57.0000
14.9604 -7.5393 2.7801 12.0000 59.0000
14.8910 -7.6192 2.7759 14.0000 65.0000
14.5961 -7.5817 2.7301 22.0000 53.0000
14.5022 -7.6463 2.7214 27.0000 71.0000
14.3706 -7.6900 2.7057 28.0000 52.0000
14.5755 -7.9150 2.7528 24.0000 56.0000
14.4930 -7.9858 2.7465 23.0000 142.0000
14.5083 -8.1106 2.7586 23.0000 65.0000
14.4720 -8.2073 2.7612 15.0000 63.0000
14.4727 -8.3255 2.7709 12.0000 63.0000
14.4597 -8.4365 2.7782 17.0000 120.0000
14.7813 -8.7461 2.8494 7.0000 71.0000
14.5793 -8.7478 2.8210 30.0000 86.0000
14.2092 -8.6448 2.7604 16.0000 78.0000
12.7549 -7.8678 2.4905 5.0000 144.0000
12.7959 -8.0019 2.5078 11.0000 63.0000
14.0368 -8.8980 2.7583 20.0000 47.0000
14.0932 -9.0554 2.7800 19.0000 50.0000
14.1929 -9.2430 2.8104 16.0000 60.0000
14.4645 -9.5468 2.8749 14.0000 119.0000
14.3753 -9.6150 2.8689 10.0000 48.0000
14.2687 -9.6710 2.8596 20.0000 73.0000
14.3783 -9.8745 2.8932 34.0000 69.0000
14.8221 -10.3137 2.9940 18.0000 82.0000
13.7261 -9.6767 2.7869 20.0000 46.0000
13.7227 -9.8009 2.7982 28.0000 54.0000
13.8973 -10.0549 2.8458 22.0000 68.0000
13.8338 -10.1388 2.8455 19.0000 90.0000
13.9290 -10.3406 2.8777 21.0000 93.0000
13.5671 -10.2017 2.8165 7.0000 99.0000
13.3386 -10.1586 2.7824 19.0000 58.0000
13.2979 -10.2571 2.7869 31.0000 63.0000
14.4270 -11.2697 3.0349 14.0000 41.0000
13.2686 -10.4967 2.8073 14.0000 55.0000
13.1862 -10.5637 2.8036 8.0000 63.0000
20.3062 -16.4723 4.3202 3.0000 58.0000
13.2851 -10.9133 2.8523 1.0000 48.0000
20.3401 -16.9178 4.3709 3.0000 20.0000
13.2936 -11.1962 2.8830 5.0000 50.0000
13.2157 -11.2699 2.8811 18.0000 92.0000
13.1448 -11.3495 2.8807 21.0000 62.0000
13.3119 -11.6371 2.9323 21.0000 120.0000
13.3060 -11.7768 2.9467 15.0000 264.0000
12.2758 -11.0002 2.7360 12.0000 121.0000
12.3952 -11.2450 2.7774 10.0000 114.0000
14.0450 -12.8994 3.1600 10.0000 119.0000
12.5302 -11.6509 2.8387 13.0000 86.0000
11.7363 -11.0479 2.6761 27.0000 77.0000
12.2541 -11.6779 2.8088 18.0000 128.0000
12.6709 -12.2242 2.9201 17.0000 198.0000
13.9710 -13.6448 3.2352 13.0000 85.0000
13.8659 -13.7094 3.2303 19.0000 55.0000
11.7413 -11.7524 2.7571 6.0000 122.0000
12.4177 -12.5828 2.9319 11.0000 102.0000
12.2948 -12.6121 2.9212 15.0000 67.0000
12.0926 -12.5579 2.8917 11.0000 71.0000
10.8175 -11.3728 2.6069 6.0000 90.0000
10.7874 -11.4814 2.6164 23.0000 48.0000
10.7932 -11.6298 2.6348 9.0000 129.0000
11.6460 -12.7040 2.8591 11.0000 108.0000
10.7690 -11.8931 2.6640 10.0000 111.0000
9.9227 -11.0947 2.4739 9.0000 108.0000
9.8322 -11.1302 2.4684 13.0000 72.0000
9.7612 -11.1874 2.4677 15.0000 53.0000
9.6820 -11.2351 2.4651 16.0000 77.0000
9.6276 -11.3116 2.4689 7.0000 145.0000
10.3157 -12.2716 2.6619 13.0000 106.0000
9.6400 -11.6118 2.5078 11.0000 164.0000
9.6186 -11.7318 2.5208 21.0000 80.0000
9.4428 -11.6625 2.4938 14.0000 84.0000
9.3532 -11.6979 2.4891 19.0000 101.0000
9.4812 -12.0083 2.5420 14.0000 85.0000
9.2046 -11.8064 2.4880 15.0000 80.0000
9.1423 -11.8759 2.4907 17.0000 69.0000
9.1027 -11.9758 2.4998 9.0000 100.0000
9.1457 -12.1869 2.5316 11.0000 74.0000
9.1207 -12.3102 2.5454 10.0000 91.0000
9.3363 -12.7641 2.6263 8.0000 55.0000
9.3330 -12.9252 2.6473 32.0000 67.0000
9.2672 -13.0015 2.6512 13.0000 81.0000
10.3163 -14.6625 2.9728 7.0000 55.0000
8.6076 -12.3953 2.5077 8.0000 82.0000
8.4946 -12.3942 2.4970 11.0000 91.0000
8.3128 -12.2899 2.4661 14.0000 92.0000
7.9753 -11.9484 2.3888 12.0000 101.0000
9.1635 -13.9123 2.7647 4.0000 120.0000
7.7684 -11.9535 2.3708 17.0000 76.0000
7.7300 -12.0558 2.3815 16.0000 80.0000
7.6211 -12.0480 2.3708 20.0000 41.0000
7.5507 -12.1004 2.3720 20.0000 67.0000
7.6470 -12.4238 2.4253 15.0000 126.0000
7.5630 -12.4578 2.4229 17.0000 70.0000
7.4489 -12.4413 2.4109 22.0000 53.0000
7.4246 -12.5752 2.4278 19.0000 70.0000
7.4188 -12.7433 2.4511 13.0000 66.0000
7.9615 -13.8703 2.6556 10.0000 120.0000
7.8553 -13.8820 2.6486 7.0000 130.0000
7.3301 -13.1414 2.5006 13.0000 64.0000
7.2569 -13.2000 2.5032 13.0000 124.0000
7.2416 -13.3657 2.5258 15.0000 99.0000
7.6438 -14.3169 2.6944 10.0000 87.0000
7.0104 -13.3269 2.5023 8.0000 60.0000
6.8468 -13.4128 2.5025 4.0000 109.0000
6.7462 -13.4184 2.4959 17.0000 84.0000
6.7640 -13.6621 2.5329 18.0000 63.0000
6.6887 -13.7211 2.5362 19.0000 65.0000
6.7086 -13.9789 2.5756 18.0000 72.0000
6.6417 -14.0600 2.5829 20.0000 57.0000
7.2780 -15.6548 2.8639 11.0000 35.0000
7.1995 -15.7377 2.8709 1.0000 56.0000
14.0657 -43.5338 7.5337 8.0000 30.0000
13.8075 -43.6484 7.5388 14.0000 34.0000
13.3199 -43.0234 7.4171 20.0000 50.0000
12.9999 -42.9202 7.3856 13.0000 71.0000
12.7419 -43.0180 7.3888 11.0000 29.0000
12.8908 -44.5220 7.6323 9.0000 42.0000
12.2539 -43.3155 7.4134 10.0000 49.0000
12.1303 -43.9054 7.5011 20.0000 46.0000
12.0581 -44.7108 7.6253 14.0000 43.0000
10.9902 -41.7691 7.1143 17.0000 27.0000
10.7374 -41.8501 7.1167 11.0000 57.0000
4.9276 -19.7105 3.3645 8.0000 64.0000
4.7945 -19.6905 3.3560 19.0000 69.0000
4.6087 -19.4459 3.3099 19.0000 62.0000
4.5095 -19.5613 3.3247 13.0000 100.0000
4.3969 -19.6223 3.3303 23.0000 68.0000
4.2229 -19.4031 3.2891 27.0000 60.0000
4.0982 -19.4025 3.2847 17.0000 76.0000
3.9664 -19.3654 3.2743 22.0000 51.0000
3.8658 -19.4814 3.2897 7.0000 55.0000
8.9834 -46.7627 7.8400 13.0000 43.0000
8.6806 -46.7325 7.8259 20.0000 22.0000
4.1007 -23.6961 3.9761 18.0000 65.0000
3.9614 -23.7578 3.9823 23.0000 55.0000
3.7594 -23.4319 3.9242 25.0000 57.0000
3.6167 -23.4613 3.9253 22.0000 74.0000
2.6063 -17.6268 2.9548 10.0000 70.0000
2.5072 -17.7070 2.9655 21.0000 56.0000
2.4192 -17.8746 2.9908 22.0000 47.0000
2.2959 -17.7844 2.9734 20.0000 56.0000
2.1602 -17.5817 2.9377 13.0000 73.0000
2.0518 -17.5907 2.9370 12.0000 78.0000
1.9393 -17.5617 2.9302 18.0000 84.0000
1.8229 -17.4909 2.9167 19.0000 71.0000
1.7073 -17.4182 2.9029 15.0000 104.0000
1.6039 -17.4667 2.9092 10.0000 54.0000
1.4991 -17.5038 2.9137 10.0000 48.0000
1.4007 -17.6267 2.9325 12.0000 75.0000
1.3251 -18.0789 3.0055 10.0000 90.0000
1.2169 -18.1270 3.0121 6.0000 62.0000
1.1629 -19.0719 3.1661 9.0000 71.0000
0.9809 -17.8962 2.9720 17.0000 72.0000
0.8742 -17.9660 2.9825 18.0000 45.0000
0.7648 -17.9907 2.9857 17.0000 50.0000
0.7086 -19.4812 3.2295 9.0000 69.0000
0.5888 -19.4773 3.2282 11.0000 100.0000
0.4690 -19.4687 3.2263 13.0000 88.0000
0.3833 -21.3449 3.5335 9.0000 122.0000
0.2340 -19.8125 3.2819 7.0000 105.0000
0.1143 -20.1362 3.3348 16.0000 86.0000
-0.0092 -20.0290 3.3172 16.0000 108.0000
-0.1304 -19.7670 3.2743 13.0000 70.0000
-0.2695 -21.1779 3.5058 9.0000 123.0000
-0.4029 -21.3564 3.5355 8.0000 134.0000
-0.4888 -19.5443 3.2388 7.0000 103.0000
-0.6816 -21.8874 3.6236 6.0000 136.0000
-0.7364 -19.7478 3.2734 12.0000 71.0000
-0.8668 -19.9559 3.3083 7.0000 99.0000
-1.0262 -20.6963 3.4308 7.0000 73.0000
-1.1221 -20.1319 3.3392 17.0000 64.0000
-1.2565 -20.3000 3.3680 6.0000 118.0000
-2.1445 -31.5207 5.2131 24.0000 42.0000
-2.3380 -31.5090 5.2134 12.0000 75.0000
-2.7900 -34.7145 5.7430 13.0000 47.0000
-2.9853 -34.4922 5.7094 14.0000 56.0000
-3.1802 -34.2935 5.6798 8.0000 71.0000
-3.3880 -34.2478 5.6756 11.0000 83.0000
-3.1319 -29.7903 4.9444 27.0000 76.0000
-3.3138 -29.7627 4.9431 22.0000 80.0000
-3.4512 -29.3576 4.8796 22.0000 99.0000
-1.4233 -11.4920 1.9321 4.0000 77.0000
-1.5121 -11.6239 1.9554 4.0000 64.0000
-1.6334 -11.9811 2.0161 8.0000 49.0000
-1.7106 -11.9972 2.0204 17.0000 84.0000
-1.8054 -12.1290 2.0440 7.0000 64.0000
-1.8773 -12.1021 2.0414 6.0000 55.0000
-1.9369 -11.9998 2.0264 8.0000 60.0000
-2.0141 -12.0091 2.0300 9.0000 70.0000
-2.0978 -12.0538 2.0395 10.0000 68.0000
-2.1815 -12.0951 2.0486 8.0000 76.0000
-2.2538 -12.0718 2.0469 7.0000 55.0000
-5.7993 -30.0493 5.0508 20.0000 55.0000
-2.4076 -12.0723 2.0518 3.0000 79.0000
-2.4973 -12.1336 2.0646 6.0000 71.0000
-2.5474 -12.0032 2.0453 5.0000 81.0000
-6.6410 -30.3829 5.1322 16.0000 67.0000
-2.6059 -11.5773 1.9792 6.0000 49.0000
-2.6540 -11.4620 1.9625 8.0000 59.0000
-2.7108 -11.3889 1.9530 20.0000 69.0000
-2.7597 -11.2867 1.9386 27.0000 62.0000
-2.8184 -11.2275 1.9314 35.0000 68.0000
-2.8835 -11.1956 1.9290 30.0000 63.0000
-2.9572 -11.1968 1.9323 31.0000 98.0000
-3.0300 -11.1937 1.9348 21.0000 94.0000
-1.8158 -6.5465 1.1475 5.0000 110.0000
-1.8866 -6.6434 1.1659 15.0000 90.0000
-1.9265 -6.6289 1.1654 14.0000 99.0000
-1.9273 -6.4826 1.1425 4.0000 123.0000
-3.6361 -11.9651 2.0838 11.0000 83.0000
-1.9130 -6.1569 1.0907 10.0000 93.0000
-1.9493 -6.1404 1.0899 16.0000 112.0000
-1.9729 -6.0851 1.0824 15.0000 135.0000
-2.0016 -6.0466 1.0779 13.0000 150.0000
-2.0213 -5.9828 1.0690 13.0000 79.0000
-2.0753 -6.0207 1.0777 6.0000 157.0000
-2.1331 -6.0674 1.0881 5.0000 235.0000
-2.1400 -5.9697 1.0734 3.0000 350.0000
-2.9224 -7.9985 1.4298 14.0000 193.0000
-2.2417 -6.0197 1.0868 4.0000 152.0000
-4.4477 -11.7268 2.0898 17.0000 90.0000
-4.5605 -11.8051 2.1084 16.0000 61.0000
-4.7029 -11.9551 2.1398 18.0000 85.0000
-4.6925 -11.7171 2.1029 7.0000 34.0000
-3.6222 -8.8853 1.6068 2.0000 92.0000
-3.6188 -8.7234 1.5820 11.0000 66.0000
-3.6136 -8.5620 1.5573 14.0000 53.0000
-3.6279 -8.4508 1.5414 17.0000 66.0000
-3.6434 -8.3451 1.5265 20.0000 70.0000
-3.6925 -8.3181 1.5257 18.0000 44.0000
-3.7435 -8.2953 1.5257 18.0000 84.0000
-3.7976 -8.2793 1.5270 17.0000 78.0000
-3.8817 -8.3274 1.5399 20.0000 72.0000
-3.9893 -8.4230 1.5616 14.0000 87.0000
-5.3870 -11.1970 2.0707 7.0000 70.0000
-5.5106 -11.2763 2.0913 7.0000 58.0000
-5.6301 -11.3440 2.1099 3.0000 56.0000
-10.9415 -21.7128 4.0196 9.0000 50.0000
-5.6512 -11.0439 2.0675 7.0000 59.0000
-5.5487 -10.6814 2.0070 5.0000 65.0000
-11.2804 -21.3960 3.9989 8.0000 49.0000
-5.9545 -11.1268 2.1026 6.0000 56.0000
-6.0481 -11.1369 2.1113 6.0000 53.0000
-6.1073 -11.0831 2.1083 9.0000 46.0000
-6.1593 -11.0170 2.1029 11.0000 95.0000
-6.2491 -11.0185 2.1104 8.0000 58.0000
-6.3230 -10.9911 2.1125 10.0000 79.0000
-12.0375 -20.6327 3.9498 12.0000 59.0000
-6.6001 -11.1539 2.1584 4.0000 78.0000
-6.9578 -11.5955 2.2506 6.0000 99.0000
-7.1970 -11.8291 2.3037 3.0000 121.0000
-7.2617 -11.7721 2.3013 20.0000 135.0000
-7.3040 -11.6797 2.2920 10.0000 123.0000
-7.5065 -11.8413 2.3322 25.0000 121.0000
-7.5966 -11.8225 2.3375 18.0000 128.0000
-7.5430 -11.5821 2.2996 13.0000 208.0000
-7.2455 -10.9772 2.1900 5.0000 64.0000
-7.6720 -11.4698 2.2959 17.0000 60.0000
-7.7660 -11.4577 2.3029 14.0000 58.0000
-13.3551 -19.4472 3.9012 10.0000 49.0000
-13.4691 -19.3576 3.8998 10.0000 53.0000
-7.0335 -9.9762 2.0348 4.0000 80.0000
-13.6787 -19.1532 3.8922 8.0000 69.0000
-13.7931 -19.0649 3.8914 9.0000 101.0000
-7.7357 -10.5543 2.1790 4.0000 153.0000
-6.4758 -8.7222 1.8146 6.0000 108.0000
-6.5493 -8.7091 1.8201 3.0000 32.0000
-14.2156 -18.6664 3.8802 11.0000 37.0000
-7.9695 -10.3316 2.1728 3.0000 31.0000
-8.0443 -10.2973 2.1759 25.0000 103.0000
-7.5380 -9.5279 2.0254 7.0000 91.0000
-7.6327 -9.5269 2.0350 19.0000 72.0000
-7.6419 -9.4194 2.0222 11.0000 84.0000
-7.6087 -9.2617 1.9987 7.0000 134.0000
-10.6431 -12.7953 2.7622 12.0000 81.0000
-11.1308 -13.2159 2.8663 5.0000 55.0000
-11.1931 -13.1255 2.8617 6.0000 37.0000
-11.3263 -13.1179 2.8749 14.0000 41.0000
-11.4040 -13.0452 2.8743 7.0000 107.0000
-11.4903 -12.9823 2.8759 7.0000 63.0000
-15.6367 -17.4508 3.8750 10.0000 63.0000
-15.7408 -17.3516 3.8744 10.0000 101.0000
-12.2320 -13.3181 2.9982 8.0000 108.0000
-13.2058 -14.2026 3.2130 11.0000 105.0000
-13.1716 -13.9927 3.1841 18.0000 104.0000
-13.1258 -13.7737 3.1529 23.0000 81.0000
-12.2544 -12.7021 2.9272 14.0000 58.0000
-12.1666 -12.4572 2.8883 35.0000 53.0000
-12.2345 -12.3739 2.8864 30.0000 72.0000
-12.3507 -12.3391 2.8958 28.0000 56.0000
-13.1748 -13.0021 3.0682 21.0000 98.0000
-13.5787 -13.2372 3.1425 22.0000 140.0000
-13.8579 -13.3446 3.1876 22.0000 83.0000
-13.9710 -13.2892 3.1948 9.0000 98.0000
-25.3923 -23.8596 5.7458 12.0000 80.0000
-12.4905 -11.5922 2.8274 3.0000 54.0000
-12.9986 -11.9161 2.9246 7.0000 106.0000
-13.0904 -11.8533 2.9288 9.0000 111.0000
-12.5819 -11.2530 2.8010 3.0000 76.0000
-12.8733 -11.3723 2.8497 16.0000 155.0000
-12.9183 -11.2717 2.8443 32.0000 47.0000
-13.0418 -11.2392 2.8562 23.0000 134.0000
-13.4449 -11.4437 2.9281 8.0000 45.0000
-27.0830 -22.7684 5.8341 15.0000 48.0000
-27.2389 -22.6157 5.8377 18.0000 35.0000
-27.5381 -22.5802 5.8718 5.0000 37.0000
-31.0131 -24.7995 6.5435 9.0000 40.0000
-31.2049 -24.6406 6.5519 11.0000 40.0000
-31.4544 -24.5257 6.5725 38.0000 22.0000
-31.6465 -24.3647 6.5812 7.0000 52.0000
-31.5499 -23.0797 6.4421 8.0000 35.0000
-29.7533 -21.4863 6.0503 19.0000 46.0000
-29.8211 -21.2581 6.0375 21.0000 60.0000
-30.0245 -21.1264 6.0522 15.0000 82.0000
-30.0984 -20.9035 6.0412 20.0000 39.0000
-12.4137 -8.5080 2.5009 7.0000 65.0000
-12.4787 -8.4405 2.5035 8.0000 49.0000
-30.7514 -20.5284 6.0951 13.0000 62.0000
-12.4841 -8.2227 2.4844 5.0000 54.0000
-12.4069 -8.0631 2.4595 2.0000 43.0000
-12.6306 -8.0987 2.4935 11.0000 50.0000
-12.9086 -8.1656 2.5378 2.0000 55.0000
-33.4206 -20.5735 6.4675 10.0000 80.0000
-8.4773 -5.1460 1.6595 1.0000 47.0000
-33.7324 -20.1989 6.4793 17.0000 23.0000
-46.5222 -26.3288 8.7971 34.0000 52.0000
-46.2985 -25.8285 8.7249 25.0000 46.0000
-46.3921 -25.5087 8.7129 25.0000 31.0000
-46.4931 -25.1939 8.7027 19.0000 49.0000
-46.6198 -24.8938 8.6977 25.0000 34.0000
-46.7927 -24.6183 8.7016 18.0000 48.0000
-47.0050 -24.3630 8.7131 14.0000 37.0000
-41.4324 -19.5747 7.5459 1.0000 40.0000
-41.3656 -19.2335 7.5122 23.0000 44.0000
-41.4954 -18.9851 7.5145 15.0000 34.0000
-18.1049 -5.1210 3.1182 1.0000 47.0000
-18.2130 -5.0311 3.1313 9.0000 36.0000
-16.2998 -4.2879 2.7968 1.0000 36.0000
-16.4969 -4.2317 2.8257 20.0000 68.0000
-15.2665 -3.8163 2.6135 13.0000 49.0000
-15.2877 -3.7221 2.6132 32.0000 44.0000
-15.3323 -3.6335 2.6169 14.0000 54.0000
-18.5882 -4.2850 3.1609 12.0000 73.0000
-37.9787 -8.5114 6.4143 18.0000 75.0000
-17.0792 -3.7170 2.8992 3.0000 61.0000
-37.8699 -8.0002 6.3790 23.0000 66.0000
-38.0971 -7.8044 6.4089 13.0000 46.0000
-37.4783 -7.4383 6.2976 22.0000 63.0000
-37.6705 -7.2365 6.3222 33.0000 44.0000
-17.1445 -3.1837 2.8924 7.0000 56.0000
-17.2035 -3.0856 2.8990 12.0000 58.0000
-17.2445 -2.9839 2.9027 11.0000 69.0000
-17.1914 -2.8662 2.8909 7.0000 58.0000
-17.1960 -2.7586 2.8888 5.0000 46.0000
-28.0121 -4.3184 4.6802 6.0000 69.0000
-28.0283 -4.1450 4.6786 30.0000 64.0000
-28.0317 -3.9699 4.6750 10.0000 35.0000
-28.0340 -3.7949 4.6714 11.0000 32.0000
-28.4267 -3.6706 4.7326 16.0000 64.0000
-38.9818 -4.7911 6.4723 19.0000 47.0000
-38.9349 -4.5430 6.4599 18.0000 39.0000
-40.6040 -4.4854 6.7307 16.0000 64.0000
-38.9632 -4.0623 6.4558 16.0000 48.0000
-38.9344 -3.8179 6.4471 24.0000 42.0000
-41.1838 -3.7836 6.8137 7.0000 49.0000
-40.6891 -3.4865 6.7286 20.0000 51.0000
-39.3729 -3.1304 6.5087 17.0000 42.0000
-39.3027 -2.8823 6.4942 28.0000 54.0000
-38.6039 -2.5930 6.3766 19.0000 70.0000
-38.4684 -2.3469 6.3518 15.0000 55.0000
-39.7837 -2.1822 6.5655 19.0000 43.0000
-26.8235 -3.9426 4.1344 19.0000 35.0000
-25.2914 -3.5588 3.8968 10.0000 67.0000
-26.9424 -3.6229 4.1455 18.0000 73.0000
-26.9739 -3.4588 4.1470 16.0000 81.0000
-27.6228 -3.3699 4.2427 23.0000 43.0000
-27.7038 -3.2074 4.2519 23.0000 68.0000
-37.2420 -4.0817 5.7002 23.0000 33.0000
-37.2712 -3.8536 5.7009 23.0000 59.0000
-38.4003 -3.7325 5.8690 9.0000 88.0000
-38.4107 -3.4957 5.8672 14.0000 34.0000
-38.0787 -3.2300 5.8137 20.0000 60.0000
-38.0032 -2.9888 5.7993 20.0000 64.0000
-37.5810 -2.7237 5.7326 16.0000 58.0000
-37.5911 -2.4926 5.7317 17.0000 58.0000
-37.5464 -2.2584 5.7228 26.0000 62.0000
-37.7817 -2.0400 5.7564 22.0000 38.0000
-38.0177 -1.8188 5.7904 24.0000 54.0000
-38.0874 -1.5880 5.7993 19.0000 62.0000
-27.1806 -0.9651 4.1474 18.0000 131.0000
-26.4240 -0.7758 4.0321 15.0000 90.0000
-25.6138 -0.5946 3.9089 19.0000 54.0000
-25.5507 -0.4363 3.8989 13.0000 43.0000
-25.5954 -0.2800 3.9053 14.0000 83.0000
