-4.6502 -6.2798 -1.6639 15.0000 81.0000
-4.6811 -6.2410 -1.6611 15.0000 58.0000
-4.7134 -6.2043 -1.6590 14.0000 76.0000
-4.7472 -6.1699 -1.6575 13.0000 52.0000
-4.7813 -6.1360 -1.6562 14.0000 62.0000
-4.8116 -6.0974 -1.6537 14.0000 60.0000
-4.8453 -6.0632 -1.6524 14.0000 40.0000
-4.8799 -6.0303 -1.6515 15.0000 47.0000
-4.9014 -5.9813 -1.6462 13.0000 58.0000
-4.9392 -5.9526 -1.6466 14.0000 63.0000
-4.9775 -5.9245 -1.6473 13.0000 63.0000
-5.0106 -5.8901 -1.6462 14.0000 68.0000
-5.0346 -5.8452 -1.6421 14.0000 44.0000
-5.0639 -5.8068 -1.6400 13.0000 99.0000
-5.1007 -5.7771 -1.6404 14.0000 87.0000
-5.1302 -5.7391 -1.6385 13.0000 66.0000
-5.1627 -5.7047 -1.6377 12.0000 78.0000
-5.1917 -5.6664 -1.6357 13.0000 66.0000
-5.2224 -5.6301 -1.6345 12.0000 73.0000
-5.2508 -5.5916 -1.6325 13.0000 99.0000
-5.2736 -5.5472 -1.6289 13.0000 76.0000
-5.2987 -5.5056 -1.6261 14.0000 59.0000
-5.3283 -5.4688 -1.6248 13.0000 80.0000
-5.3597 -5.4339 -1.6242 15.0000 60.0000
-5.3957 -5.4037 -1.6251 14.0000 61.0000
-5.4232 -5.3650 -1.6234 14.0000 64.0000
-5.4490 -5.3248 -1.6212 13.0000 47.0000
-5.4837 -5.2933 -1.6219 14.0000 54.0000
-5.5140 -5.2575 -1.6212 13.0000 57.0000
-5.5440 -5.2216 -1.6206 14.0000 68.0000
-5.5745 -5.1861 -1.6201 13.0000 85.0000
-5.6019 -5.1478 -1.6189 14.0000 91.0000
-5.6268 -5.1075 -1.6169 14.0000 67.0000
-5.6493 -5.0650 -1.6144 12.0000 50.0000
-5.6774 -5.0277 -1.6135 13.0000 66.0000
-5.7125 -4.9966 -1.6148 13.0000 40.0000
-5.7305 -4.9506 -1.6112 11.0000 56.0000
-5.7645 -4.9185 -1.6122 13.0000 55.0000
-5.7946 -4.8831 -1.6122 11.0000 38.0000
-5.8169 -4.8412 -1.6101 13.0000 46.0000
-5.8420 -4.8017 -1.6088 11.0000 42.0000
-5.8691 -4.7639 -1.6082 12.0000 60.0000
-5.8990 -4.7284 -1.6084 12.0000 48.0000
-5.9233 -4.6885 -1.6071 12.0000 50.0000
-5.9427 -4.6448 -1.6046 12.0000 53.0000
-5.9657 -4.6041 -1.6031 12.0000 75.0000
-5.9922 -4.5662 -1.6026 12.0000 46.0000
-6.0162 -4.5264 -1.6016 12.0000 46.0000
-6.0313 -4.4801 -1.5982 12.0000 58.0000
-6.0508 -4.4372 -1.5960 12.0000 70.0000
-6.0787 -4.4006 -1.5962 11.0000 55.0000
-6.1025 -4.3609 -1.5954 11.0000 50.0000
-6.1275 -4.3223 -1.5949 12.0000 61.0000
-6.1539 -4.2846 -1.5949 11.0000 48.0000
-6.1752 -4.2434 -1.5937 11.0000 57.0000
-6.1979 -4.2033 -1.5928 11.0000 55.0000
-6.2187 -4.1619 -1.5915 12.0000 44.0000
-6.2425 -4.1226 -1.5911 12.0000 56.0000
-6.2710 -4.0864 -1.5920 11.0000 43.0000
-6.2918 -4.0452 -1.5909 12.0000 84.0000
-6.3058 -3.9997 -1.5881 12.0000 71.0000
-6.3253 -3.9578 -1.5868 12.0000 73.0000
-6.3486 -3.9184 -1.5866 11.0000 73.0000
-6.3733 -3.8799 -1.5868 12.0000 65.0000
-6.3995 -3.8422 -1.5875 13.0000 51.0000
-6.4365 -3.8108 -1.5909 13.0000 65.0000
-6.4614 -3.7723 -1.5913 12.0000 71.0000
-6.4768 -3.7282 -1.5894 11.0000 57.0000
-6.5055 -3.6917 -1.5909 12.0000 61.0000
-6.5340 -3.6551 -1.5924 11.0000 46.0000
-6.5563 -3.6149 -1.5924 12.0000 62.0000
-6.5801 -3.5755 -1.5928 11.0000 65.0000
-6.6010 -3.5346 -1.5926 10.0000 75.0000
-6.6217 -3.4936 -1.5924 11.0000 51.0000
-6.6483 -3.4556 -1.5937 11.0000 78.0000
-6.6754 -3.4179 -1.5952 10.0000 91.0000
-6.6971 -3.3773 -1.5954 9.0000 67.0000
-6.7282 -3.3413 -1.5979 9.0000 60.0000
-6.7583 -3.3047 -1.6003 8.0000 68.0000
-6.7863 -3.2670 -1.6022 7.0000 62.0000
-6.8133 -3.2286 -1.6039 7.0000 72.0000
-6.8419 -3.1909 -1.6061 6.0000 99.0000
-6.8657 -3.1509 -1.6071 5.0000 84.0000
-1.0107 -0.4576 -0.1984 2.0000 47.0000
-1.0108 -0.4502 -0.1977 2.0000 89.0000
-1.0117 -0.4432 -0.1973 2.0000 82.0000
-1.0072 -0.4339 -0.1956 2.0000 53.0000
-1.0054 -0.4258 -0.1945 2.0000 76.0000
-1.0080 -0.4196 -0.1945 2.0000 64.0000
-1.0078 -0.4123 -0.1939 2.0000 59.0000
-1.0004 -0.4021 -0.1916 2.0000 55.0000
-1.0064 -0.3974 -0.1924 2.0000 51.0000
-1.0079 -0.3909 -0.1922 2.0000 53.0000
-1.0140 -0.3861 -0.1930 2.0000 47.0000
-1.0127 -0.3785 -0.1922 2.0000 76.0000
-1.0040 -0.3682 -0.1896 2.0000 54.0000
-1.0117 -0.3640 -0.1909 1.0000 57.0000
-1.0056 -0.3549 -0.1890 2.0000 48.0000
-1.0032 -0.3471 -0.1879 2.0000 64.0000
-1.0081 -0.3419 -0.1886 2.0000 52.0000
-1.0064 -0.3345 -0.1877 2.0000 44.0000
-0.9862 -0.3211 -0.1826 2.0000 41.0000
-1.0002 -0.3189 -0.1854 2.0000 54.0000
-1.0050 -0.3136 -0.1860 2.0000 69.0000
-1.0003 -0.3054 -0.1845 2.0000 45.0000
-1.0012 -0.2990 -0.1843 2.0000 47.0000
-0.9871 -0.2882 -0.1807 2.0000 37.0000
-1.0058 -0.2870 -0.1845 1.0000 53.0000
-0.9990 -0.2784 -0.1826 1.0000 49.0000
-0.9866 -0.2685 -0.1794 2.0000 40.0000
-0.9873 -0.2622 -0.1792 2.0000 55.0000
-0.9974 -0.2583 -0.1811 1.0000 56.0000
-0.9942 -0.2510 -0.1800 1.0000 52.0000
-0.9872 -0.2428 -0.1781 1.0000 55.0000
-0.9887 -0.2367 -0.1781 2.0000 41.0000
-0.9853 -0.2296 -0.1770 1.0000 49.0000
-0.9877 -0.2237 -0.1772 2.0000 58.0000
-0.9909 -0.2181 -0.1777 1.0000 51.0000
-0.9951 -0.2126 -0.1783 2.0000 45.0000
-0.9897 -0.2051 -0.1768 1.0000 35.0000
-0.9766 -0.1962 -0.1736 1.0000 51.0000
-0.9739 -0.1894 -0.1728 1.0000 43.0000
-0.9818 -0.1847 -0.1743 1.0000 37.0000
-0.9829 -0.1787 -0.1743 1.0000 61.0000
-0.9686 -0.1700 -0.1708 1.0000 34.0000
-0.9202 -0.1326 -0.1591 1.0000 31.0000
-1.0009 -0.0634 -0.1751 1.0000 28.0000
-0.9720 -0.0556 -0.1687 1.0000 26.0000
-0.9792 -0.0500 -0.1702 2.0000 34.0000
-0.9892 -0.0444 -0.1723 1.0000 43.0000
-1.0022 -0.0388 -0.1751 1.0000 41.0000
-1.0092 -0.0329 -0.1766 1.0000 40.0000
-1.0104 -0.0267 -0.1768 1.0000 35.0000
-1.0125 -0.0205 -0.1772 1.0000 42.0000
-0.9931 -0.0141 -0.1730 1.0000 50.0000
-0.9961 -0.0080 -0.1736 1.0000 38.0000
-0.9174 -0.0445 -0.1679 1.0000 56.0000
-0.9410 -0.0399 -0.1733 1.0000 63.0000
-0.9500 -0.0344 -0.1754 1.0000 65.0000
-0.9716 -0.0293 -0.1803 1.0000 58.0000
-0.9065 -0.0217 -0.1652 1.0000 50.0000
-0.8864 0.0387 -0.1607 1.0000 48.0000
-0.9416 0.0468 -0.1736 1.0000 58.0000
-0.8869 0.0496 -0.1609 1.0000 53.0000
-0.9060 0.0563 -0.1654 1.0000 64.0000
-0.8852 0.0605 -0.1607 1.0000 46.0000
-0.9091 0.0677 -0.1663 1.0000 58.0000
-0.9300 0.0749 -0.1713 1.0000 50.0000
-0.9034 0.0784 -0.1652 1.0000 68.0000
-0.8757 0.0815 -0.1589 1.0000 50.0000
-0.8742 0.0867 -0.1587 2.0000 69.0000
-0.9153 0.0964 -0.1684 1.0000 66.0000
-0.8828 0.0985 -0.1609 1.0000 62.0000
-0.8870 0.1045 -0.1621 2.0000 63.0000
-0.8912 0.1105 -0.1632 1.0000 58.0000
-0.8914 0.1161 -0.1634 1.0000 46.0000
-0.8897 0.1215 -0.1632 2.0000 52.0000
-0.8841 0.1262 -0.1621 2.0000 62.0000
-0.8930 0.1331 -0.1643 2.0000 63.0000
-0.8796 0.1366 -0.1614 1.0000 58.0000
-0.8961 0.1448 -0.1654 1.0000 58.0000
-0.9000 0.1511 -0.1666 1.0000 50.0000
-0.8827 0.1538 -0.1627 2.0000 55.0000
-0.9077 0.1638 -0.1688 2.0000 83.0000
-0.8846 0.1653 -0.1636 2.0000 36.0000
-0.8922 0.1724 -0.1657 2.0000 65.0000
-0.8825 0.1762 -0.1636 2.0000 41.0000
-0.8919 0.1837 -0.1661 2.0000 55.0000
-0.8755 0.1860 -0.1625 2.0000 85.0000
-0.8687 0.1901 -0.1612 2.0000 47.0000
-0.8618 0.1942 -0.1598 2.0000 56.0000
-0.8568 0.1986 -0.1589 2.0000 48.0000
-0.8726 0.2079 -0.1630 2.0000 59.0000
-0.8723 0.2134 -0.1632 2.0000 72.0000
-0.8445 0.2122 -0.1569 2.0000 80.0000
-0.8573 0.2210 -0.1603 2.0000 67.0000
-0.8540 0.2257 -0.1598 2.0000 51.0000
-0.8385 0.2272 -0.1564 2.0000 70.0000
-0.8719 0.2419 -0.1648 3.0000 65.0000
-0.8694 0.2470 -0.1645 3.0000 67.0000
-0.8202 0.2385 -0.1531 2.0000 78.0000
-0.8318 0.2474 -0.1562 2.0000 67.0000
-0.8218 0.2500 -0.1542 2.0000 56.0000
-0.8557 0.2659 -0.1627 2.0000 49.0000
-0.8243 0.2618 -0.1555 2.0000 76.0000
-0.8292 0.2689 -0.1571 2.0000 57.0000
-0.8312 0.2752 -0.1580 2.0000 43.0000
-0.8323 0.2813 -0.1587 2.0000 67.0000
-0.8342 0.2876 -0.1596 2.0000 38.0000
-0.8315 0.2924 -0.1594 2.0000 68.0000
-0.8379 0.3005 -0.1614 2.0000 59.0000
-0.8535 0.3119 -0.1657 1.0000 70.0000
-0.8278 0.3084 -0.1598 2.0000 62.0000
-0.8450 0.3207 -0.1645 2.0000 72.0000
-0.8303 0.3209 -0.1614 2.0000 72.0000
-0.8302 0.3267 -0.1618 4.0000 93.0000
-0.8462 0.3391 -0.1663 7.0000 74.0000
-0.8414 0.3431 -0.1657 10.0000 102.0000
-0.8375 0.3476 -0.1652 6.0000 89.0000
-0.8327 0.3516 -0.1645 2.0000 62.0000
-0.8583 0.3685 -0.1715 1.0000 62.0000
-0.8453 0.3691 -0.1688 1.0000 57.0000
-0.8260 0.3668 -0.1645 2.0000 53.0000
-0.8380 0.3783 -0.1681 1.0000 75.0000
-0.8259 0.3790 -0.1657 2.0000 62.0000
-0.7953 0.3709 -0.1585 2.0000 53.0000
-0.8238 0.3903 -0.1663 2.0000 77.0000
-0.8302 0.3996 -0.1686 1.0000 75.0000
-0.8278 0.4047 -0.1686 1.0000 63.0000
-0.8226 0.4084 -0.1679 2.0000 53.0000
-0.8219 0.4143 -0.1684 1.0000 51.0000
-0.8176 0.4185 -0.1679 1.0000 35.0000
-0.8020 0.4168 -0.1645 1.0000 35.0000
-0.7968 0.4203 -0.1639 1.0000 46.0000
-0.7891 0.4225 -0.1625 1.0000 40.0000
-0.7796 0.4236 -0.1607 1.0000 56.0000
-0.7762 0.4279 -0.1605 1.0000 41.0000
-6.2585 3.4896 -1.6125 1.0000 42.0000
-6.2412 3.5303 -1.6136 1.0000 58.0000
-6.2127 3.5647 -1.6118 2.0000 36.0000
-6.2067 3.6120 -1.6161 3.0000 31.0000
-6.1894 3.6530 -1.6174 4.0000 53.0000
-6.1753 3.6959 -1.6197 5.0000 43.0000
-6.1608 3.7388 -1.6219 4.0000 56.0000
-6.1485 3.7832 -1.6249 5.0000 53.0000
-6.1483 3.8353 -1.6312 5.0000 53.0000
-6.1403 3.8828 -1.6355 5.0000 47.0000
-6.1303 3.9293 -1.6393 5.0000 27.0000
-6.1118 3.9706 -1.6409 5.0000 49.0000
-6.0971 4.0144 -1.6436 6.0000 37.0000
-6.0870 4.0615 -1.6476 7.0000 41.0000
-6.0708 4.1048 -1.6501 7.0000 54.0000
-6.0536 4.1475 -1.6524 7.0000 66.0000
-6.0424 4.1945 -1.6564 6.0000 54.0000
-6.0381 4.2467 -1.6625 7.0000 42.0000
-6.0254 4.2932 -1.6663 8.0000 63.0000
-6.0124 4.3398 -1.6702 7.0000 41.0000
-5.9998 4.3870 -1.6742 8.0000 63.0000
-5.9829 4.4312 -1.6771 9.0000 59.0000
-5.9587 4.4702 -1.6780 9.0000 57.0000
-5.9560 4.5255 -1.6853 11.0000 62.0000
-5.9475 4.5769 -1.6909 11.0000 64.0000
-5.9485 4.6360 -1.6994 12.0000 62.0000
-5.9291 4.6797 -1.7022 13.0000 51.0000
-5.8972 4.7135 -1.7013 25.0000 74.0000
-5.8546 4.7386 -1.6972 30.0000 53.0000
-5.8231 4.7726 -1.6965 31.0000 74.0000
-5.8140 4.8250 -1.7026 28.0000 50.0000
-5.7932 4.8681 -1.7053 27.0000 60.0000
-5.7803 4.9181 -1.7105 25.0000 81.0000
-5.8009 4.9973 -1.7260 22.0000 107.0000
-5.8142 5.0712 -1.7396 18.0000 99.0000
-5.8531 5.1687 -1.7612 18.0000 70.0000
-5.8547 5.2344 -1.7715 21.0000 74.0000
-5.8037 5.2532 -1.7657 24.0000 92.0000
-5.7649 5.2828 -1.7637 24.0000 95.0000
-5.7381 5.3234 -1.7655 19.0000 76.0000
-5.7025 5.3558 -1.7646 18.0000 73.0000
-5.6420 5.3646 -1.7558 23.0000 75.0000
-5.6110 5.4011 -1.7564 21.0000 65.0000
-5.5345 5.3933 -1.7425 19.0000 63.0000
-5.4833 5.4093 -1.7366 18.0000 79.0000
-5.4176 5.4105 -1.7260 21.0000 72.0000
-5.3720 5.4312 -1.7220 19.0000 103.0000
-5.3201 5.4453 -1.7159 20.0000 54.0000
-5.2745 5.4652 -1.7118 19.0000 69.0000
-5.2032 5.4580 -1.6992 22.0000 75.0000
-5.1596 5.4791 -1.6958 23.0000 83.0000
-5.1159 5.5000 -1.6925 24.0000 78.0000
-5.0530 5.4997 -1.6826 19.0000 85.0000
-5.0015 5.5111 -1.6765 22.0000 77.0000
-4.9617 5.5352 -1.6744 20.0000 74.0000
-4.9174 5.5539 -1.6708 18.0000 86.0000
-4.8800 5.5803 -1.6697 18.0000 104.0000
-4.8367 5.5998 -1.6666 22.0000 85.0000
-4.8010 5.6279 -1.6661 24.0000 73.0000
-4.7488 5.6364 -1.6598 26.0000 81.0000
-4.7023 5.6512 -1.6555 24.0000 90.0000
-4.6465 5.6543 -1.6479 23.0000 72.0000
-4.5970 5.6646 -1.6425 26.0000 53.0000
-4.5566 5.6858 -1.6404 26.0000 107.0000
-4.5229 5.7152 -1.6409 26.0000 66.0000
-4.5099 5.7713 -1.6492 23.0000 77.0000
-4.4857 5.8135 -1.6535 20.0000 89.0000
-4.4677 5.8641 -1.6602 23.0000 74.0000
-4.4492 5.9148 -1.6670 24.0000 92.0000
-4.4233 5.9561 -1.6711 22.0000 75.0000
-4.4114 6.0169 -1.6808 27.0000 84.0000
-4.3859 6.0596 -1.6853 26.0000 125.0000
-4.3548 6.0951 -1.6877 29.0000 111.0000
-4.3308 6.1408 -1.6931 25.0000 80.0000
-4.2964 6.1721 -1.6945 24.0000 63.0000
-4.2662 6.2096 -1.6976 24.0000 87.0000
-4.2411 6.2550 -1.7031 25.0000 75.0000
-4.2032 6.2817 -1.7033 26.0000 53.0000
-4.1474 6.2814 -1.6961 27.0000 107.0000
-4.1024 6.2969 -1.6934 27.0000 92.0000
-4.0663 6.3261 -1.6945 31.0000 88.0000
-4.0003 6.3081 -1.6828 26.0000 134.0000
-3.9357 6.2912 -1.6715 24.0000 80.0000
-3.8919 6.3070 -1.6693 23.0000 100.0000
-3.8764 6.3690 -1.6796 27.0000 94.0000
-3.8468 6.4086 -1.6839 25.0000 98.0000
-3.8079 6.4329 -1.6841 26.0000 89.0000
-3.7620 6.4452 -1.6812 27.0000 104.0000
-3.7180 6.4606 -1.6792 27.0000 122.0000
-3.6494 6.4324 -1.6657 22.0000 105.0000
-3.6075 6.4504 -1.6645 24.0000 120.0000
-3.5754 6.4861 -1.6681 22.0000 87.0000
-3.5201 6.4797 -1.6607 27.0000 88.0000
-3.4688 6.4797 -1.6551 28.0000 95.0000
-3.4290 6.5008 -1.6551 27.0000 68.0000
-3.3913 6.5261 -1.6562 28.0000 79.0000
-3.3503 6.5450 -1.6557 28.0000 86.0000
-3.3061 6.5576 -1.6537 26.0000 83.0000
-3.2589 6.5638 -1.6501 25.0000 61.0000
-3.2091 6.5644 -1.6452 28.0000 72.0000
-3.1658 6.5779 -1.6436 29.0000 77.0000
-3.1125 6.5699 -1.6366 26.0000 60.0000
-3.0672 6.5782 -1.6339 28.0000 83.0000
-3.0154 6.5722 -1.6276 31.0000 100.0000
-2.9730 6.5861 -1.6265 30.0000 84.0000
-2.9309 6.6006 -1.6256 28.0000 94.0000
-2.8845 6.6051 -1.6222 26.0000 93.0000
-2.8409 6.6155 -1.6204 28.0000 74.0000
-2.7957 6.6221 -1.6177 30.0000 102.0000
-2.7513 6.6301 -1.6154 29.0000 63.0000
-2.7072 6.6387 -1.6134 32.0000 99.0000
-2.6682 6.6597 -1.6145 29.0000 98.0000
-2.6277 6.6769 -1.6147 28.0000 97.0000
-2.5817 6.6802 -1.6116 31.0000 114.0000
-2.5400 6.6941 -1.6111 32.0000 81.0000
-2.4979 6.7068 -1.6105 33.0000 77.0000
-2.4567 6.7220 -1.6105 34.0000 90.0000
-2.4164 6.7397 -1.6111 32.0000 97.0000
-2.3714 6.7443 -1.6087 29.0000 96.0000
-2.3252 6.7449 -1.6053 27.0000 106.0000
-2.2844 6.7609 -1.6057 28.0000 92.0000
-2.2463 6.7849 -1.6082 29.0000 69.0000
-2.2085 6.8106 -1.6111 27.0000 94.0000
-2.1723 6.8417 -1.6154 25.0000 74.0000
-2.1334 6.8651 -1.6179 28.0000 123.0000
-2.0881 6.8678 -1.6154 23.0000 103.0000
-2.0465 6.8824 -1.6159 25.0000 90.0000
-2.0072 6.9051 -1.6183 25.0000 105.0000
-1.9659 6.9210 -1.6192 26.0000 102.0000
-1.9216 6.9264 -1.6177 26.0000 104.0000
-1.8752 6.9240 -1.6143 25.0000 60.0000
-1.8292 6.9221 -1.6111 23.0000 96.0000
-1.7845 6.9248 -1.6091 24.0000 80.0000
-1.7379 6.9195 -1.6053 25.0000 177.0000
-1.6931 6.9206 -1.6030 24.0000 164.0000
-1.6592 6.9668 -1.6116 32.0000 112.0000
-1.6184 6.9854 -1.6136 28.0000 133.0000
-1.5732 6.9848 -1.6111 21.0000 156.0000
-1.5357 7.0191 -1.6170 21.0000 120.0000
-1.5044 7.0836 -1.6301 24.0000 116.0000
-1.4595 7.0860 -1.6285 26.0000 94.0000
-1.4171 7.1006 -1.6298 28.0000 86.0000
-1.3795 7.1398 -1.6370 28.0000 66.0000
-1.3347 7.1433 -1.6359 22.0000 75.0000
-1.2862 7.1255 -1.6298 21.0000 102.0000
-1.2461 7.1543 -1.6348 31.0000 103.0000
-1.2043 7.1743 -1.6377 29.0000 80.0000
-1.1612 7.1874 -1.6391 30.0000 93.0000
-1.1151 7.1818 -1.6361 27.0000 76.0000
-1.0685 7.1712 -1.6321 25.0000 127.0000
-1.0222 7.1622 -1.6285 24.0000 127.0000
-0.9752 7.1461 -1.6233 26.0000 98.0000
-0.9286 7.1307 -1.6183 27.0000 74.0000
-0.8876 7.1585 -1.6235 32.0000 95.0000
-0.8462 7.1851 -1.6285 31.0000 110.0000
-0.8040 7.2076 -1.6325 29.0000 96.0000
-0.7517 7.1359 -1.6147 41.0000 107.0000
-0.7092 7.1539 -1.6179 31.0000 124.0000
-0.6715 7.2241 -1.6332 27.0000 111.0000
-0.6242 7.1941 -1.6253 31.0000 110.0000
-0.5817 7.2182 -1.6301 31.0000 111.0000
-0.5421 7.2858 -1.6449 27.0000 87.0000
-0.4974 7.2880 -1.6447 26.0000 85.0000
-0.4497 7.2432 -1.6337 34.0000 109.0000
-0.4045 7.2332 -1.6307 29.0000 94.0000
-0.3594 7.2219 -1.6276 29.0000 108.0000
-0.3150 7.2221 -1.6271 28.0000 99.0000
-0.2714 7.2433 -1.6316 26.0000 109.0000
-0.2279 7.2721 -1.6379 26.0000 95.0000
-0.1838 7.2977 -1.6436 27.0000 90.0000
-0.1393 7.3104 -1.6463 26.0000 57.0000
-0.0944 7.3121 -1.6465 24.0000 79.0000
-0.0495 7.2960 -1.6427 24.0000 54.0000
-0.0047 7.2669 -1.6359 24.0000 95.0000
0.0399 7.2551 -1.6332 25.0000 102.0000
0.0847 7.2830 -1.6397 22.0000 88.0000
0.1296 7.2931 -1.6422 24.0000 73.0000
0.1745 7.3009 -1.6443 25.0000 89.0000
0.2193 7.3007 -1.6445 26.0000 89.0000
0.2646 7.3128 -1.6476 30.0000 117.0000
0.3090 7.2984 -1.6447 28.0000 107.0000
0.3534 7.2886 -1.6429 26.0000 103.0000
0.3981 7.2872 -1.6431 26.0000 79.0000
0.4436 7.2973 -1.6461 29.0000 90.0000
0.4887 7.2993 -1.6472 29.0000 84.0000
0.5336 7.2981 -1.6476 27.0000 70.0000
0.5789 7.3015 -1.6492 27.0000 69.0000
0.6240 7.3007 -1.6499 27.0000 87.0000
0.6683 7.2919 -1.6488 24.0000 64.0000
0.7136 7.2935 -1.6501 24.0000 99.0000
0.7554 7.2609 -1.6436 21.0000 74.0000
0.8020 7.2745 -1.6479 26.0000 98.0000
0.8391 7.2046 -1.6328 31.0000 99.0000
0.8803 7.1751 -1.6271 24.0000 121.0000
0.9227 7.1570 -1.6242 23.0000 89.0000
0.9680 7.1619 -1.6267 25.0000 76.0000
1.0137 7.1683 -1.6296 24.0000 97.0000
1.0591 7.1716 -1.6319 26.0000 102.0000
1.1010 7.1515 -1.6287 32.0000 88.0000
1.1476 7.1619 -1.6328 32.0000 140.0000
1.1927 7.1615 -1.6343 31.0000 127.0000
1.2361 7.1511 -1.6337 25.0000 88.0000
1.2831 7.1607 -1.6377 25.0000 79.0000
1.3287 7.1623 -1.6400 24.0000 62.0000
1.3736 7.1588 -1.6411 26.0000 69.0000
1.4160 7.1425 -1.6393 25.0000 92.0000
1.4584 7.1270 -1.6377 24.0000 79.0000
1.4993 7.1046 -1.6346 24.0000 117.0000
1.5431 7.0962 -1.6348 23.0000 93.0000
1.5883 7.0942 -1.6366 22.0000 66.0000
1.6300 7.0768 -1.6348 22.0000 99.0000
1.6725 7.0628 -1.6339 22.0000 75.0000
1.7158 7.0524 -1.6339 25.0000 102.0000
1.7579 7.0370 -1.6328 25.0000 92.0000
1.7996 7.0205 -1.6314 24.0000 98.0000
1.8441 7.0149 -1.6328 24.0000 77.0000
1.8907 7.0167 -1.6359 24.0000 76.0000
1.9311 6.9955 -1.6337 25.0000 99.0000
1.9700 6.9695 -1.6303 25.0000 98.0000
2.0084 6.9423 -1.6267 24.0000 94.0000
2.0485 6.9214 -1.6247 24.0000 92.0000
2.0906 6.9078 -1.6244 25.0000 91.0000
2.1324 6.8930 -1.6240 23.0000 104.0000
2.1714 6.8696 -1.6215 26.0000 104.0000
2.2138 6.8570 -1.6217 28.0000 78.0000
2.2394 6.7933 -1.6096 22.0000 76.0000
2.2776 6.7693 -1.6071 21.0000 79.0000
2.3226 6.7654 -1.6096 20.0000 71.0000
2.3650 6.7537 -1.6102 22.0000 82.0000
2.4051 6.7354 -1.6093 23.0000 80.0000
2.4437 6.7132 -1.6075 26.0000 90.0000
2.4832 6.6935 -1.6064 24.0000 108.0000
2.5111 6.6435 -1.5978 21.0000 96.0000
2.5515 6.6271 -1.5976 22.0000 62.0000
2.5854 6.5941 -1.5933 26.0000 78.0000
2.6229 6.5708 -1.5915 28.0000 89.0000
2.6631 6.5546 -1.5915 29.0000 116.0000
2.7044 6.5409 -1.5922 25.0000 71.0000
2.7400 6.5134 -1.5895 19.0000 75.0000
2.7546 6.4373 -1.5746 24.0000 82.0000
2.8181 6.4757 -1.5886 24.0000 83.0000
2.8673 6.4797 -1.5940 22.0000 80.0000
2.9106 6.4699 -1.5960 26.0000 77.0000
2.9514 6.4546 -1.5967 27.0000 75.0000
2.9951 6.4452 -1.5990 26.0000 88.0000
3.0425 6.4435 -1.6033 25.0000 61.0000
3.0870 6.4352 -1.6060 25.0000 96.0000
3.1307 6.4249 -1.6082 25.0000 76.0000
3.1757 6.4169 -1.6111 25.0000 82.0000
3.2185 6.4043 -1.6129 23.0000 112.0000
3.2573 6.3836 -1.6127 25.0000 77.0000
3.2964 6.3634 -1.6127 25.0000 103.0000
3.3358 6.3440 -1.6129 26.0000 93.0000
3.3733 6.3208 -1.6123 22.0000 88.0000
3.4172 6.3094 -1.6147 25.0000 105.0000
3.4591 6.2943 -1.6163 23.0000 74.0000
3.5057 6.2874 -1.6201 25.0000 74.0000
3.5543 6.2836 -1.6249 24.0000 113.0000
3.5986 6.2718 -1.6276 25.0000 77.0000
3.6395 6.2538 -1.6287 24.0000 92.0000
3.6778 6.2314 -1.6287 23.0000 91.0000
3.7144 6.2062 -1.6280 24.0000 82.0000
3.7555 6.1883 -1.6294 23.0000 87.0000
3.8010 6.1776 -1.6328 22.0000 108.0000
3.8481 6.1690 -1.6368 23.0000 70.0000
3.8948 6.1593 -1.6406 22.0000 80.0000
3.9404 6.1476 -1.6440 23.0000 90.0000
3.9870 6.1372 -1.6479 21.0000 56.0000
4.0364 6.1305 -1.6528 23.0000 73.0000
4.0810 6.1162 -1.6557 23.0000 68.0000
4.1288 6.1063 -1.6600 24.0000 78.0000
4.1728 6.0905 -1.6627 23.0000 69.0000
4.2134 6.0696 -1.6641 25.0000 67.0000
4.2511 6.0444 -1.6643 27.0000 93.0000
4.2893 6.0198 -1.6648 26.0000 102.0000
4.3318 6.0013 -1.6670 28.0000 84.0000
4.3795 5.9896 -1.6713 26.0000 66.0000
4.4191 5.9665 -1.6724 26.0000 91.0000
4.4568 5.9408 -1.6729 26.0000 94.0000
4.4967 5.9180 -1.6742 25.0000 75.0000
4.5371 5.8957 -1.6758 23.0000 78.0000
4.5684 5.8616 -1.6740 22.0000 103.0000
4.5970 5.8243 -1.6713 20.0000 103.0000
4.6320 5.7952 -1.6711 18.0000 78.0000
4.6669 5.7659 -1.6708 17.0000 67.0000
4.7040 5.7395 -1.6715 17.0000 90.0000
4.7516 5.7255 -1.6760 18.0000 86.0000
4.8011 5.7134 -1.6812 19.0000 80.0000
4.8461 5.6957 -1.6848 19.0000 87.0000
4.9109 5.7005 -1.6954 24.0000 70.0000
4.9528 5.6784 -1.6979 23.0000 72.0000
5.0011 5.6632 -1.7026 23.0000 73.0000
5.0546 5.6535 -1.7091 21.0000 73.0000
5.1133 5.6491 -1.7175 20.0000 56.0000
5.1624 5.6334 -1.7224 18.0000 84.0000
5.2161 5.6224 -1.7290 18.0000 68.0000
5.2811 5.6229 -1.7393 20.0000 80.0000
5.3431 5.6194 -1.7486 21.0000 89.0000
5.3991 5.6089 -1.7558 24.0000 68.0000
5.4585 5.6015 -1.7641 21.0000 64.0000
5.5079 5.5832 -1.7691 20.0000 67.0000
5.5737 5.5810 -1.7794 17.0000 60.0000
5.6231 5.5618 -1.7844 15.0000 68.0000
5.6703 5.5401 -1.7887 14.0000 75.0000
5.7112 5.5120 -1.7909 15.0000 78.0000
5.7484 5.4802 -1.7920 22.0000 81.0000
5.7685 5.4321 -1.7878 19.0000 79.0000
5.8010 5.3960 -1.7875 18.0000 67.0000
5.8153 5.3431 -1.7817 22.0000 105.0000
5.8401 5.3001 -1.7792 23.0000 71.0000
5.8391 5.2343 -1.7688 25.0000 80.0000
5.8266 5.1590 -1.7551 27.0000 80.0000
5.8120 5.0827 -1.7409 27.0000 90.0000
5.8254 5.0316 -1.7355 26.0000 80.0000
5.8428 4.9844 -1.7314 22.0000 111.0000
5.8755 4.9504 -1.7321 21.0000 100.0000
5.9043 4.9130 -1.7317 16.0000 65.0000
5.9298 4.8729 -1.7303 11.0000 62.0000
5.9520 4.8303 -1.7281 11.0000 39.0000
5.9610 4.7773 -1.7220 10.0000 43.0000
5.9749 4.7285 -1.7175 9.0000 58.0000
5.9969 4.6863 -1.7154 8.0000 42.0000
6.0078 4.6358 -1.7103 8.0000 48.0000
6.0122 4.5805 -1.7033 8.0000 47.0000
6.0277 4.5342 -1.6997 7.0000 44.0000
6.0366 4.4831 -1.6943 7.0000 39.0000
6.0648 4.4466 -1.6945 8.0000 41.0000
6.0620 4.3876 -1.6859 6.0000 47.0000
6.0737 4.3395 -1.6817 5.0000 57.0000
6.0987 4.3011 -1.6812 6.0000 61.0000
6.1129 4.2552 -1.6778 5.0000 51.0000
6.1181 4.2033 -1.6720 4.0000 50.0000
6.1252 4.1531 -1.6668 5.0000 64.0000
6.1352 4.1051 -1.6625 5.0000 49.0000
6.1448 4.0572 -1.6582 5.0000 35.0000
6.1630 4.0152 -1.6564 4.0000 41.0000
6.1695 3.9657 -1.6515 4.0000 37.0000
6.1674 3.9110 -1.6443 4.0000 45.0000
6.1864 3.8700 -1.6429 4.0000 35.0000
6.2025 3.8274 -1.6409 4.0000 30.0000
6.2109 3.7801 -1.6368 4.0000 45.0000
6.2131 3.7294 -1.6312 4.0000 46.0000
6.2216 3.6828 -1.6274 4.0000 56.0000
6.2365 3.6401 -1.6253 5.0000 44.0000
6.2410 3.5916 -1.6206 4.0000 37.0000
6.2519 3.5470 -1.6177 4.0000 31.0000
6.2651 3.5038 -1.6154 4.0000 33.0000
6.2660 3.4540 -1.6100 5.0000 36.0000
6.2768 3.4099 -1.6073 4.0000 45.0000
6.2959 3.3704 -1.6069 5.0000 40.0000
6.3069 3.3267 -1.6044 5.0000 55.0000
6.3229 3.2857 -1.6033 5.0000 56.0000
6.3378 3.2442 -1.6019 5.0000 33.0000
6.3532 3.2030 -1.6008 5.0000 46.0000
6.3544 3.1549 -1.5960 4.0000 42.0000
6.3701 3.1141 -1.5951 5.0000 64.0000
6.3724 3.0669 -1.5909 5.0000 66.0000
6.3911 3.0278 -1.5909 5.0000 63.0000
6.4061 2.9869 -1.5900 6.0000 32.0000
6.4190 2.9451 -1.5886 6.0000 58.0000
6.4289 2.9020 -1.5866 5.0000 50.0000
6.4422 2.8605 -1.5855 5.0000 51.0000
6.4596 2.8209 -1.5855 5.0000 54.0000
6.4821 2.7836 -1.5868 5.0000 38.0000
6.4892 2.7396 -1.5843 6.0000 38.0000
6.4915 2.6937 -1.5807 6.0000 67.0000
6.4971 2.6494 -1.5780 6.0000 64.0000
6.5123 2.6091 -1.5778 6.0000 51.0000
6.5128 2.5631 -1.5740 5.0000 47.0000
6.5184 2.5192 -1.5715 5.0000 54.0000
6.5256 2.4760 -1.5695 5.0000 47.0000
6.5388 2.4353 -1.5690 5.0000 59.0000
6.5527 2.3948 -1.5688 5.0000 55.0000
6.5618 2.3525 -1.5674 5.0000 44.0000
6.5614 2.3071 -1.5638 5.0000 61.0000
6.5699 2.2649 -1.5625 5.0000 44.0000
6.5781 2.2226 -1.5611 5.0000 41.0000
6.5926 2.1825 -1.5613 5.0000 58.0000
6.5975 2.1393 -1.5593 4.0000 41.0000
6.6049 2.0970 -1.5580 5.0000 58.0000
6.6167 2.0562 -1.5577 5.0000 53.0000
6.6134 2.0107 -1.5539 5.0000 42.0000
6.6209 1.9687 -1.5528 4.0000 52.0000
6.6404 1.9302 -1.5546 5.0000 27.0000
6.6465 1.8878 -1.5532 5.0000 42.0000
6.6570 1.8468 -1.5530 5.0000 45.0000
6.6682 1.8059 -1.5530 5.0000 60.0000
6.6829 1.7659 -1.5539 5.0000 31.0000
6.6861 1.7230 -1.5521 5.0000 69.0000
6.6890 1.6800 -1.5503 5.0000 54.0000
6.7020 1.6396 -1.5510 5.0000 50.0000
6.7129 1.5987 -1.5512 5.0000 43.0000
6.7244 1.5579 -1.5517 5.0000 44.0000
6.7339 1.5166 -1.5517 5.0000 44.0000
6.7335 1.4732 -1.5494 5.0000 48.0000
6.7310 1.4294 -1.5467 5.0000 59.0000
6.7473 1.3897 -1.5485 5.0000 48.0000
6.7614 1.3494 -1.5499 6.0000 46.0000
6.7724 1.3084 -1.5505 5.0000 49.0000
6.7784 1.2665 -1.5501 4.0000 30.0000
6.7889 1.2254 -1.5508 5.0000 46.0000
6.7944 1.1834 -1.5503 5.0000 51.0000
6.7967 1.1409 -1.5492 5.0000 37.0000
6.8094 1.1001 -1.5505 4.0000 37.0000
6.8218 1.0592 -1.5519 5.0000 72.0000
6.8320 1.0179 -1.5528 5.0000 45.0000
6.8323 0.9751 -1.5514 4.0000 53.0000
6.8324 0.9324 -1.5501 5.0000 46.0000
6.8399 0.8907 -1.5505 4.0000 44.0000
6.8482 0.8490 -1.5512 5.0000 50.0000
6.8668 0.8086 -1.5544 5.0000 57.0000
6.8678 0.7660 -1.5535 4.0000 47.0000
6.8626 0.7228 -1.5512 5.0000 53.0000
6.8640 0.6804 -1.5505 5.0000 68.0000
6.8642 0.6379 -1.5496 4.0000 37.0000
6.8806 0.5969 -1.5526 4.0000 60.0000
6.8841 0.5547 -1.5526 4.0000 30.0000
6.8874 0.5124 -1.5526 4.0000 66.0000
6.8992 0.4708 -1.5546 5.0000 52.0000
6.9058 0.4287 -1.5555 5.0000 45.0000
6.9054 0.3861 -1.5548 5.0000 50.0000
6.9154 0.3441 -1.5566 5.0000 70.0000
6.9057 0.3012 -1.5539 4.0000 42.0000
6.9045 0.2587 -1.5532 4.0000 48.0000
6.9089 0.2164 -1.5539 5.0000 35.0000
6.9130 0.1741 -1.5546 5.0000 43.0000
6.9159 0.1317 -1.5550 5.0000 44.0000
6.9244 0.0894 -1.5568 5.0000 37.0000
6.9228 0.0469 -1.5564 4.0000 52.0000
6.9162 0.0044 -1.5548 4.0000 57.0000
6.9219 -0.0381 -1.5562 4.0000 51.0000
6.9284 -0.0806 -1.5577 5.0000 56.0000
6.9355 -0.1233 -1.5595 5.0000 58.0000
6.9415 -0.1660 -1.5611 4.0000 42.0000
6.9510 -0.2089 -1.5636 5.0000 51.0000
6.9613 -0.2520 -1.5663 4.0000 53.0000
6.9645 -0.2949 -1.5674 4.0000 53.0000
6.9577 -0.3374 -1.5663 4.0000 51.0000
6.9594 -0.3803 -1.5672 4.0000 47.0000
6.9696 -0.4237 -1.5701 4.0000 55.0000
6.9873 -0.4679 -1.5749 4.0000 74.0000
7.0105 -0.5126 -1.5809 4.0000 34.0000
7.0053 -0.5555 -1.5805 4.0000 43.0000
6.9842 -0.5970 -1.5764 4.0000 75.0000
6.9892 -0.6406 -1.5785 4.0000 58.0000
7.0006 -0.6850 -1.5821 4.0000 52.0000
7.0099 -0.7294 -1.5852 4.0000 49.0000
7.0159 -0.7735 -1.5877 4.0000 34.0000
7.0130 -0.8168 -1.5882 4.0000 32.0000
7.0156 -0.8607 -1.5900 4.0000 41.0000
7.0131 -0.9042 -1.5906 4.0000 52.0000
7.0074 -0.9472 -1.5906 4.0000 44.0000
7.0227 -0.9931 -1.5956 4.0000 42.0000
7.0203 -1.0368 -1.5965 4.0000 56.0000
7.0205 -1.0809 -1.5981 5.0000 54.0000
7.0292 -1.1264 -1.6017 5.0000 48.0000
7.0346 -1.1716 -1.6046 5.0000 41.0000
7.0398 -1.2169 -1.6075 4.0000 48.0000
7.0379 -1.2611 -1.6089 5.0000 42.0000
7.0416 -1.3064 -1.6116 5.0000 50.0000
7.0478 -1.3523 -1.6150 5.0000 55.0000
7.0470 -1.3970 -1.6168 5.0000 49.0000
7.0459 -1.4418 -1.6186 6.0000 61.0000
7.0407 -1.4858 -1.6195 6.0000 59.0000
7.0410 -1.5311 -1.6217 7.0000 55.0000
7.0400 -1.5762 -1.6238 6.0000 54.0000
7.0559 -1.6252 -1.6298 7.0000 66.0000
7.0704 -1.6743 -1.6357 8.0000 70.0000
7.0572 -1.7170 -1.6350 7.0000 45.0000
7.0503 -1.7612 -1.6359 7.0000 65.0000
7.0573 -1.8090 -1.6402 7.0000 60.0000
7.0649 -1.8572 -1.6447 8.0000 43.0000
7.0656 -1.9038 -1.6476 8.0000 78.0000
7.0622 -1.9495 -1.6497 8.0000 75.0000
7.0539 -1.9938 -1.6506 8.0000 66.0000
7.0556 -2.0411 -1.6539 7.0000 59.0000
7.0457 -2.0852 -1.6546 8.0000 73.0000
7.0449 -2.1321 -1.6575 7.0000 54.0000
7.0466 -2.1799 -1.6612 9.0000 63.0000
7.0461 -2.2272 -1.6643 7.0000 60.0000
7.0360 -2.2716 -1.6652 7.0000 69.0000
7.0275 -2.3165 -1.6666 7.0000 58.0000
7.0177 -2.3612 -1.6677 7.0000 47.0000
7.0151 -2.4083 -1.6706 7.0000 43.0000
7.0177 -2.4574 -1.6749 8.0000 60.0000
7.0052 -2.5014 -1.6756 7.0000 61.0000
6.9989 -2.5477 -1.6778 8.0000 54.0000
6.9968 -2.5956 -1.6812 9.0000 64.0000
6.9862 -2.6406 -1.6826 7.0000 68.0000
6.9763 -2.6858 -1.6841 7.0000 45.0000
6.9778 -2.7357 -1.6886 7.0000 46.0000
6.9790 -2.7857 -1.6931 8.0000 46.0000
6.9699 -2.8318 -1.6952 9.0000 60.0000
6.9659 -2.8801 -1.6985 7.0000 54.0000
6.9562 -2.9261 -1.7006 8.0000 54.0000
6.9461 -2.9722 -1.7026 7.0000 41.0000
6.9287 -3.0152 -1.7028 8.0000 57.0000
6.9065 -3.0561 -1.7019 8.0000 46.0000
6.9116 -3.1092 -1.7080 6.0000 41.0000
6.9065 -3.1580 -1.7116 7.0000 60.0000
6.8915 -3.2024 -1.7127 7.0000 39.0000
6.8822 -3.2496 -1.7154 7.0000 34.0000
6.8718 -3.2964 -1.7179 7.0000 64.0000
6.8594 -3.3423 -1.7200 8.0000 64.0000
6.8396 -3.3848 -1.7202 7.0000 41.0000
6.8213 -3.4280 -1.7209 7.0000 66.0000
6.8054 -3.4724 -1.7222 8.0000 55.0000
6.7995 -3.5222 -1.7263 6.0000 66.0000
6.7804 -3.5652 -1.7269 7.0000 45.0000
6.7601 -3.6077 -1.7274 7.0000 58.0000
6.7455 -3.6532 -1.7294 8.0000 69.0000
6.7307 -3.6988 -1.7314 8.0000 56.0000
6.7138 -3.7433 -1.7330 8.0000 69.0000
6.6949 -3.7869 -1.7341 8.0000 68.0000
6.6766 -3.8308 -1.7355 7.0000 55.0000
6.6732 -3.8834 -1.7409 8.0000 47.0000
6.6593 -3.9302 -1.7436 8.0000 66.0000
6.6368 -3.9720 -1.7441 8.0000 52.0000
6.6098 -4.0112 -1.7434 9.0000 48.0000
6.5933 -4.0568 -1.7456 8.0000 66.0000
6.5799 -4.1043 -1.7488 9.0000 67.0000
6.5579 -4.1467 -1.7497 9.0000 52.0000
6.5372 -4.1900 -1.7510 9.0000 44.0000
6.5147 -4.2322 -1.7519 9.0000 53.0000
6.4910 -4.2737 -1.7526 8.0000 49.0000
6.4720 -4.3183 -1.7546 8.0000 46.0000
6.4550 -4.3645 -1.7573 8.0000 41.0000
6.4378 -4.4106 -1.7601 8.0000 50.0000
6.4138 -4.4523 -1.7610 7.0000 50.0000
6.3912 -4.4949 -1.7623 7.0000 58.0000
6.3642 -4.5346 -1.7625 7.0000 48.0000
6.3316 -4.5701 -1.7612 8.0000 55.0000
6.3058 -4.6106 -1.7619 8.0000 50.0000
6.2844 -4.6544 -1.7639 7.0000 35.0000
6.2651 -4.6999 -1.7666 8.0000 63.0000
6.2454 -4.7454 -1.7693 8.0000 86.0000
6.2231 -4.7889 -1.7713 8.0000 40.0000
6.1921 -4.8258 -1.7709 8.0000 49.0000
6.1677 -4.8680 -1.7724 8.0000 44.0000
6.1416 -4.9088 -1.7736 8.0000 63.0000
6.1128 -4.9476 -1.7740 7.0000 56.0000
6.0846 -4.9868 -1.7747 7.0000 41.0000
6.0577 -5.0272 -1.7758 7.0000 50.0000
6.0334 -5.0699 -1.7779 8.0000 46.0000
6.0059 -5.1100 -1.7790 8.0000 67.0000
5.9811 -5.1525 -1.7810 7.0000 54.0000
5.9582 -5.1967 -1.7837 7.0000 65.0000
5.9291 -5.2358 -1.7846 6.0000 56.0000
5.9019 -5.2766 -1.7862 8.0000 58.0000
5.8731 -5.3160 -1.7873 7.0000 49.0000
5.8490 -5.3598 -1.7900 7.0000 52.0000
5.8317 -5.4102 -1.7950 9.0000 53.0000
5.8019 -5.4492 -1.7961 9.0000 48.0000
5.7818 -5.4975 -1.8004 7.0000 62.0000
5.7529 -5.5376 -1.8020 8.0000 71.0000
5.7292 -5.5829 -1.8053 9.0000 57.0000
5.6970 -5.6200 -1.8060 9.0000 69.0000
5.6617 -5.6542 -1.8058 7.0000 50.0000
5.6228 -5.6847 -1.8044 8.0000 40.0000
5.5946 -5.7261 -1.8067 8.0000 29.0000
5.5648 -5.7659 -1.8085 9.0000 53.0000
5.5407 -5.8119 -1.8123 7.0000 50.0000
5.5076 -5.8486 -1.8132 8.0000 50.0000
5.4730 -5.8837 -1.8137 8.0000 45.0000
5.4414 -5.9222 -1.8152 8.0000 31.0000
5.4010 -5.9512 -1.8139 7.0000 61.0000
5.3598 -5.9791 -1.8123 8.0000 33.0000
5.3289 -6.0185 -1.8143 8.0000 37.0000
5.3040 -6.0650 -1.8186 9.0000 59.0000
5.2731 -6.1048 -1.8209 8.0000 39.0000
5.2342 -6.1355 -1.8204 7.0000 54.0000
5.1940 -6.1646 -1.8195 8.0000 66.0000
5.1529 -6.1926 -1.8184 7.0000 54.0000
5.1303 -6.2429 -1.8240 8.0000 55.0000
5.0999 -6.2841 -1.8270 7.0000 62.0000
5.0570 -6.3099 -1.8254 7.0000 55.0000
5.0218 -6.3454 -1.8267 6.0000 56.0000
4.9846 -6.3784 -1.8274 7.0000 58.0000
4.9382 -6.3996 -1.8247 7.0000 57.0000
4.9000 -6.4314 -1.8252 7.0000 33.0000
4.8616 -6.4629 -1.8256 7.0000 46.0000
4.8172 -6.4863 -1.8238 7.0000 54.0000
4.7871 -6.5291 -1.8276 8.0000 42.0000
4.7584 -6.5741 -1.8321 7.0000 58.0000
4.7197 -6.6056 -1.8328 9.0000 55.0000
4.6791 -6.6344 -1.8328 7.0000 56.0000
4.6411 -6.6670 -1.8339 6.0000 44.0000
4.6034 -6.7002 -1.8353 6.0000 31.0000
4.5638 -6.7307 -1.8360 6.0000 29.0000
4.5235 -6.7602 -1.8364 7.0000 62.0000
4.4916 -6.8025 -1.8405 7.0000 41.0000
4.4530 -6.8348 -1.8418 8.0000 52.0000
4.4120 -6.8636 -1.8423 8.0000 44.0000
4.3776 -6.9029 -1.8457 8.0000 64.0000
4.3321 -6.9247 -1.8443 8.0000 62.0000
4.2834 -6.9412 -1.8416 7.0000 53.0000
4.2428 -6.9707 -1.8425 7.0000 59.0000
4.1989 -6.9949 -1.8421 7.0000 64.0000
4.1579 -7.0239 -1.8430 8.0000 53.0000
4.1186 -7.0560 -1.8448 8.0000 66.0000
4.0806 -7.0904 -1.8472 6.0000 73.0000
4.0260 -7.0959 -1.8421 7.0000 52.0000
3.9838 -7.1230 -1.8427 8.0000 64.0000
3.9428 -7.1524 -1.8441 9.0000 67.0000
3.9044 -7.1867 -1.8468 10.0000 64.0000
3.8667 -7.2226 -1.8499 9.0000 59.0000
3.8246 -7.2505 -1.8511 7.0000 50.0000
3.7769 -7.2678 -1.8495 7.0000 64.0000
3.7344 -7.2951 -1.8506 8.0000 60.0000
3.6922 -7.3231 -1.8520 8.0000 47.0000
3.6477 -7.3465 -1.8522 8.0000 50.0000
3.6068 -7.3775 -1.8544 9.0000 53.0000
3.5657 -7.4083 -1.8567 8.0000 43.0000
3.5210 -7.4318 -1.8572 7.0000 46.0000
3.4774 -7.4577 -1.8583 7.0000 36.0000
3.4304 -7.4762 -1.8576 8.0000 42.0000
3.3832 -7.4944 -1.8569 7.0000 51.0000
3.3392 -7.5195 -1.8581 8.0000 53.0000
3.2957 -7.5461 -1.8596 9.0000 47.0000
3.2478 -7.5626 -1.8587 8.0000 43.0000
3.2013 -7.5824 -1.8587 8.0000 36.0000
3.1577 -7.6091 -1.8605 8.0000 46.0000
3.1117 -7.6301 -1.8610 9.0000 50.0000
3.0645 -7.6482 -1.8608 8.0000 53.0000
3.0196 -7.6723 -1.8621 7.0000 45.0000
2.9739 -7.6943 -1.8630 7.0000 54.0000
2.9294 -7.7197 -1.8648 7.0000 61.0000
2.8861 -7.7485 -1.8675 7.0000 50.0000
2.8398 -7.7697 -1.8684 7.0000 58.0000
2.7891 -7.7787 -1.8664 7.0000 34.0000
2.7465 -7.8104 -1.8700 7.0000 48.0000
2.7030 -7.8400 -1.8731 7.0000 51.0000
2.6542 -7.8546 -1.8727 7.0000 59.0000
2.6059 -7.8707 -1.8727 7.0000 63.0000
2.5603 -7.8949 -1.8747 8.0000 51.0000
2.5121 -7.9114 -1.8750 6.0000 40.0000
2.4627 -7.9239 -1.8743 7.0000 60.0000
2.4148 -7.9416 -1.8750 6.0000 42.0000
2.3708 -7.9722 -1.8788 8.0000 56.0000
2.3248 -7.9969 -1.8813 8.0000 48.0000
2.2797 -8.0250 -1.8846 8.0000 52.0000
2.2317 -8.0436 -1.8858 7.0000 57.0000
2.1839 -8.0627 -1.8871 7.0000 40.0000
2.1363 -8.0835 -1.8889 7.0000 41.0000
2.0891 -8.1059 -1.8912 7.0000 55.0000
2.0403 -8.1224 -1.8921 7.0000 55.0000
1.9953 -8.1546 -1.8968 7.0000 65.0000
1.9500 -8.1866 -1.9015 8.0000 54.0000
1.8997 -8.1984 -1.9015 8.0000 42.0000
1.8526 -8.2242 -1.9049 8.0000 51.0000
1.8029 -8.2392 -1.9058 8.0000 46.0000
1.7521 -8.2491 -1.9056 8.0000 42.0000
1.7040 -8.2721 -1.9085 8.0000 75.0000
1.6553 -8.2929 -1.9110 8.0000 50.0000
1.6061 -8.3116 -1.9130 8.0000 42.0000
1.5556 -8.3241 -1.9137 8.0000 52.0000
1.5060 -8.3421 -1.9157 8.0000 41.0000
1.4558 -8.3570 -1.9171 9.0000 49.0000
1.4058 -8.3734 -1.9189 8.0000 66.0000
1.3560 -8.3915 -1.9211 8.0000 53.0000
1.3057 -8.4074 -1.9229 8.0000 52.0000
1.2555 -8.4249 -1.9252 8.0000 65.0000
1.2034 -8.4295 -1.9245 9.0000 42.0000
1.1507 -8.4300 -1.9229 8.0000 51.0000
1.1003 -8.4475 -1.9254 9.0000 62.0000
1.0500 -8.4667 -1.9283 8.0000 47.0000
0.9997 -8.4865 -1.9315 9.0000 69.0000
0.9472 -8.4896 -1.9308 9.0000 56.0000
0.8948 -8.4923 -1.9301 9.0000 54.0000
0.8440 -8.5112 -1.9333 8.0000 60.0000
0.7931 -8.5298 -1.9365 7.0000 55.0000
0.7412 -8.5404 -1.9378 8.0000 82.0000
0.6884 -8.5399 -1.9367 8.0000 49.0000
0.6354 -8.5362 -1.9349 8.0000 52.0000
0.5833 -8.5438 -1.9358 9.0000 63.0000
0.5314 -8.5560 -1.9378 7.0000 56.0000
0.4789 -8.5581 -1.9376 8.0000 54.0000
0.4259 -8.5531 -1.9358 8.0000 45.0000
0.3737 -8.5614 -1.9371 7.0000 36.0000
0.3214 -8.5694 -1.9385 9.0000 55.0000
0.2688 -8.5722 -1.9387 9.0000 56.0000
0.2164 -8.5805 -1.9403 9.0000 44.0000
0.1638 -8.5826 -1.9405 8.0000 40.0000
0.1112 -8.5922 -1.9425 7.0000 70.0000
0.0585 -8.5976 -1.9437 7.0000 52.0000
0.0058 -8.6134 -1.9473 9.0000 60.0000
-0.0471 -8.6230 -1.9495 9.0000 55.0000
-0.1002 -8.6362 -1.9527 9.0000 68.0000
-0.1536 -8.6627 -1.9590 9.0000 71.0000
-0.2071 -8.6762 -1.9624 8.0000 66.0000
-0.2607 -8.6845 -1.9646 9.0000 52.0000
-0.3149 -8.7081 -1.9705 14.0000 71.0000
-0.3671 -8.6768 -1.9637 24.0000 62.0000
-0.4213 -8.6958 -1.9687 24.0000 77.0000
-0.4757 -8.7125 -1.9732 24.0000 77.0000
-0.5318 -8.7531 -1.9833 21.0000 68.0000
-0.5868 -8.7692 -1.9878 18.0000 53.0000
-0.6405 -8.7635 -1.9874 16.0000 65.0000
-0.6928 -8.7409 -1.9831 19.0000 77.0000
-0.7491 -8.7676 -1.9903 22.0000 94.0000
-0.8014 -8.7473 -1.9867 24.0000 96.0000
-0.8532 -8.7228 -1.9822 24.0000 73.0000
-0.9045 -8.6961 -1.9772 27.0000 62.0000
-0.9563 -8.6768 -1.9741 26.0000 66.0000
-1.0032 -8.6166 -1.9615 32.0000 78.0000
-1.0538 -8.5919 -1.9572 25.0000 103.0000
-1.0991 -8.5273 -1.9437 18.0000 64.0000
-1.1456 -8.4779 -1.9338 17.0000 72.0000
-1.1891 -8.4099 -1.9196 16.0000 44.0000
-1.2290 -8.3234 -1.9011 15.0000 91.0000
-1.2698 -8.2493 -1.8855 14.0000 60.0000
-1.3155 -8.2106 -1.8783 14.0000 55.0000
-1.3615 -8.1764 -1.8722 16.0000 62.0000
-1.4069 -8.1400 -1.8657 15.0000 55.0000
-1.4527 -8.1082 -1.8603 13.0000 60.0000
-1.4986 -8.0790 -1.8556 12.0000 49.0000
-1.5451 -8.0534 -1.8517 12.0000 72.0000
-1.5907 -8.0247 -1.8472 11.0000 73.0000
-1.6368 -7.9995 -1.8436 11.0000 58.0000
-1.6828 -7.9750 -1.8403 13.0000 78.0000
-1.7290 -7.9521 -1.8373 13.0000 72.0000
-1.7750 -7.9290 -1.8344 14.0000 66.0000
-1.8195 -7.9000 -1.8301 13.0000 62.0000
-1.8666 -7.8829 -1.8288 14.0000 43.0000
-1.9087 -7.8458 -1.8227 12.0000 58.0000
-1.9558 -7.8301 -1.8218 13.0000 65.0000
-2.0022 -7.8114 -1.8202 13.0000 52.0000
-2.0473 -7.7886 -1.8177 13.0000 57.0000
-2.0915 -7.7627 -1.8146 14.0000 52.0000
-2.1358 -7.7375 -1.8116 13.0000 57.0000
-2.1779 -7.7055 -1.8071 13.0000 67.0000
-2.2235 -7.6864 -1.8058 14.0000 63.0000
-2.2684 -7.6651 -1.8040 13.0000 55.0000
-2.3134 -7.6445 -1.8024 13.0000 48.0000
-2.3577 -7.6218 -1.8004 13.0000 63.0000
-2.4018 -7.5989 -1.7984 14.0000 49.0000
-2.4448 -7.5728 -1.7956 14.0000 69.0000
-2.4854 -7.5401 -1.7914 12.0000 48.0000
-2.5282 -7.5146 -1.7889 12.0000 80.0000
-2.5708 -7.4888 -1.7864 13.0000 51.0000
-2.6148 -7.4673 -1.7851 12.0000 65.0000
-2.6560 -7.4383 -1.7819 13.0000 62.0000
-2.6965 -7.4081 -1.7785 13.0000 67.0000
-2.7382 -7.3814 -1.7760 12.0000 50.0000
-2.7804 -7.3563 -1.7740 13.0000 60.0000
-2.8244 -7.3363 -1.7733 14.0000 50.0000
-2.8676 -7.3143 -1.7722 14.0000 65.0000
-2.9084 -7.2867 -1.7697 14.0000 92.0000
-2.9505 -7.2624 -1.7682 14.0000 76.0000
-2.9891 -7.2297 -1.7646 13.0000 42.0000
-3.0300 -7.2031 -1.7625 13.0000 46.0000
-3.0695 -7.1737 -1.7598 14.0000 52.0000
-3.1088 -7.1440 -1.7571 14.0000 85.0000
-3.1495 -7.1176 -1.7553 14.0000 75.0000
-3.1867 -7.0840 -1.7517 14.0000 58.0000
-3.2248 -7.0528 -1.7488 13.0000 67.0000
-3.2627 -7.0213 -1.7459 15.0000 64.0000
-3.3016 -6.9924 -1.7436 14.0000 47.0000
-3.3360 -6.9544 -1.7391 15.0000 75.0000
-3.3739 -6.9242 -1.7366 15.0000 77.0000
-3.4133 -6.8972 -1.7350 14.0000 78.0000
-3.4507 -6.8666 -1.7326 14.0000 76.0000
-3.4901 -6.8401 -1.7312 14.0000 75.0000
-3.5258 -6.8064 -1.7281 14.0000 70.0000
-3.5620 -6.7743 -1.7254 14.0000 53.0000
-3.5994 -6.7446 -1.7233 16.0000 59.0000
-3.6361 -6.7138 -1.7211 15.0000 67.0000
-3.6758 -6.6888 -1.7204 14.0000 83.0000
-3.7139 -6.6610 -1.7190 14.0000 73.0000
-3.7490 -6.6279 -1.7163 14.0000 75.0000
-3.7852 -6.5972 -1.7143 15.0000 73.0000
-3.8202 -6.5646 -1.7118 14.0000 53.0000
-3.8540 -6.5301 -1.7089 13.0000 64.0000
-3.8875 -6.4955 -1.7060 16.0000 48.0000
-3.9237 -6.4657 -1.7044 15.0000 62.0000
-3.9531 -6.4249 -1.6999 14.0000 82.0000
-3.9842 -6.3873 -1.6963 16.0000 60.0000
-4.0181 -6.3545 -1.6940 14.0000 52.0000
-4.0529 -6.3231 -1.6922 14.0000 61.0000
-4.0868 -6.2908 -1.6902 15.0000 62.0000
-4.1168 -6.2526 -1.6866 15.0000 63.0000
-4.1426 -6.2086 -1.6814 14.0000 75.0000
-4.1708 -6.1685 -1.6774 14.0000 65.0000
-4.2031 -6.1347 -1.6751 14.0000 79.0000
-4.2395 -6.1072 -1.6747 16.0000 72.0000
-4.2713 -6.0731 -1.6724 15.0000 80.0000
-4.3023 -6.0381 -1.6699 16.0000 72.0000
-4.3375 -6.0092 -1.6693 16.0000 69.0000
-4.3703 -5.9770 -1.6677 14.0000 69.0000
-4.4052 -5.9477 -1.6670 14.0000 79.0000
-4.4346 -5.9112 -1.6643 15.0000 76.0000
-4.4672 -5.8792 -1.6630 13.0000 82.0000
-4.4978 -5.8448 -1.6609 15.0000 72.0000
-4.5282 -5.8101 -1.6589 14.0000 77.0000
-4.5590 -5.7761 -1.6571 14.0000 82.0000
-4.5913 -5.7442 -1.6560 13.0000 66.0000
-4.6264 -5.7159 -1.6560 15.0000 70.0000
-4.6540 -5.6784 -1.6533 14.0000 59.0000
-4.6794 -5.6385 -1.6499 14.0000 54.0000
-4.7096 -5.6045 -1.6483 14.0000 65.0000
-4.7413 -5.5725 -1.6474 14.0000 49.0000
-4.7754 -5.5433 -1.6474 14.0000 64.0000
-4.8107 -5.5153 -1.6479 13.0000 61.0000
-4.8418 -5.4828 -1.6470 14.0000 80.0000
-4.8702 -5.4472 -1.6452 15.0000 54.0000
-4.8989 -5.4121 -1.6436 14.0000 80.0000
-4.9360 -5.3863 -1.6449 14.0000 56.0000
-4.9703 -5.3573 -1.6454 14.0000 59.0000
-4.9984 -5.3218 -1.6438 14.0000 47.0000
-5.0276 -5.2875 -1.6427 13.0000 60.0000
-5.0498 -5.2460 -1.6393 14.0000 79.0000
-5.0785 -5.2114 -1.6382 14.0000 81.0000
-5.1070 -5.1767 -1.6370 14.0000 52.0000
-5.1283 -5.1349 -1.6337 13.0000 81.0000
-5.1521 -5.0958 -1.6312 16.0000 66.0000
-5.1777 -5.0586 -1.6294 14.0000 67.0000
-5.2037 -5.0220 -1.6278 15.0000 108.0000
-5.2295 -4.9853 -1.6262 15.0000 74.0000
-5.2472 -4.9411 -1.6222 12.0000 69.0000
-5.2739 -4.9055 -1.6210 12.0000 61.0000
-5.3039 -4.8730 -1.6210 13.0000 90.0000
-5.3315 -4.8384 -1.6204 14.0000 54.0000
-5.3589 -4.8037 -1.6197 14.0000 63.0000
-5.3839 -4.7668 -1.6183 13.0000 68.0000
-5.4087 -4.7299 -1.6170 13.0000 62.0000
-5.4354 -4.6947 -1.6163 13.0000 59.0000
-5.4619 -4.6593 -1.6156 11.0000 66.0000
-5.4911 -4.6264 -1.6159 12.0000 60.0000
-5.5254 -4.5976 -1.6177 12.0000 83.0000
-5.5557 -4.5654 -1.6183 11.0000 53.0000
-5.5791 -4.5276 -1.6170 13.0000 69.0000
-5.6037 -4.4908 -1.6161 12.0000 79.0000
-5.6259 -4.4521 -1.6145 12.0000 69.0000
-5.6485 -4.4139 -1.6132 12.0000 71.0000
-5.6739 -4.3780 -1.6127 12.0000 52.0000
-5.6999 -4.3425 -1.6125 12.0000 75.0000
-5.7210 -4.3033 -1.6109 12.0000 73.0000
-5.7410 -4.2635 -1.6091 12.0000 60.0000
-5.7678 -4.2288 -1.6093 12.0000 64.0000
-5.7921 -4.1922 -1.6089 13.0000 67.0000
-5.8114 -4.1520 -1.6071 13.0000 65.0000
-5.8328 -4.1135 -1.6060 12.0000 68.0000
-5.8547 -4.0754 -1.6051 12.0000 86.0000
-5.8683 -4.0317 -1.6019 8.0000 57.0000
-0.7995 -0.5407 -0.1787 2.0000 65.0000
-0.8053 -0.5374 -0.1794 2.0000 79.0000
-0.8118 -0.5346 -0.1803 2.0000 62.0000
-0.8632 -0.5610 -0.1936 4.0000 77.0000
-0.8667 -0.5557 -0.1936 6.0000 89.0000
-0.8429 -0.5331 -0.1862 2.0000 50.0000
-0.8239 -0.5140 -0.1801 2.0000 52.0000
-0.8477 -0.5217 -0.1857 2.0000 50.0000
-0.8493 -0.5155 -0.1853 2.0000 56.0000
-0.8507 -0.5093 -0.1848 2.0000 74.0000
-0.8513 -0.5026 -0.1841 2.0000 53.0000
-0.8493 -0.4944 -0.1828 2.0000 99.0000
-0.8464 -0.4858 -0.1812 2.0000 54.0000
-0.8477 -0.4796 -0.1808 2.0000 58.0000
-0.8489 -0.4734 -0.1803 2.0000 57.0000
-0.8476 -0.4659 -0.1792 2.0000 59.0000
-0.8581 -0.4648 -0.1812 2.0000 57.0000
-0.8584 -0.4582 -0.1805 2.0000 40.0000
-0.8689 -0.4570 -0.1826 2.0000 68.0000
-0.8648 -0.4481 -0.1808 2.0000 68.0000
-0.8701 -0.4441 -0.1814 2.0000 48.0000
-0.8781 -0.4414 -0.1828 2.0000 77.0000
-0.8825 -0.4368 -0.1832 2.0000 61.0000
-0.8773 -0.4276 -0.1812 2.0000 64.0000
-0.8334 -0.3998 -0.1693 2.0000 47.0000
-0.8675 -0.4097 -0.1774 2.0000 69.0000
-0.8726 -0.4056 -0.1781 2.0000 69.0000
-0.8822 -0.4035 -0.1799 2.0000 48.0000
-0.8793 -0.3956 -0.1785 2.0000 58.0000
-0.8755 -0.3875 -0.1769 2.0000 49.0000
-0.8841 -0.3848 -0.1785 2.0000 77.0000
-0.8954 -0.3832 -0.1808 2.0000 58.0000
-0.8969 -0.3774 -0.1805 2.0000 48.0000
-0.9009 -0.3726 -0.1810 2.0000 78.0000
-0.8744 -0.3553 -0.1738 1.0000 68.0000
-0.8865 -0.3539 -0.1763 2.0000 77.0000
-0.8913 -0.3495 -0.1769 2.0000 58.0000
-0.8944 -0.3444 -0.1772 2.0000 48.0000
-0.9010 -0.3406 -0.1783 2.0000 79.0000
-0.9122 -0.3385 -0.1805 2.0000 54.0000
-0.8960 -0.3262 -0.1760 2.0000 62.0000
-0.8943 -0.3194 -0.1751 2.0000 47.0000
-0.8944 -0.3132 -0.1747 2.0000 61.0000
-0.9000 -0.3090 -0.1756 2.0000 74.0000
-0.8991 -0.3026 -0.1749 2.0000 56.0000
-0.9324 -0.3075 -0.1826 2.0000 47.0000
-0.9120 -0.2945 -0.1772 2.0000 55.0000
-0.9008 -0.2848 -0.1740 2.0000 54.0000
-0.9044 -0.2798 -0.1745 2.0000 65.0000
-0.9005 -0.2726 -0.1731 2.0000 51.0000
-0.8975 -0.2656 -0.1720 2.0000 60.0000
-0.9075 -0.2626 -0.1740 1.0000 58.0000
-0.9354 -0.2645 -0.1803 1.0000 54.0000
-0.9201 -0.2540 -0.1763 1.0000 38.0000
-0.9329 -0.2514 -0.1790 1.0000 43.0000
-0.9523 -0.2504 -0.1832 1.0000 71.0000
-0.9557 -0.2451 -0.1837 1.0000 41.0000
-0.9610 -0.2402 -0.1846 1.0000 57.0000
-0.9501 -0.2313 -0.1817 1.0000 50.0000
-0.9544 -0.2261 -0.1823 1.0000 58.0000
-0.9614 -0.2216 -0.1837 1.0000 44.0000
-0.9504 -0.2129 -0.1808 1.0000 57.0000
-0.9470 -0.2060 -0.1796 1.0000 52.0000
-0.9206 -0.1943 -0.1731 1.0000 36.0000
-0.9303 -0.1904 -0.1751 1.0000 48.0000
-0.9477 -0.1880 -0.1790 1.0000 36.0000
-0.9498 -0.1823 -0.1792 1.0000 57.0000
-0.8360 -0.1550 -0.1521 1.0000 33.0000
-0.7388 -0.0583 -0.1269 1.0000 41.0000
-0.7440 -0.0541 -0.1280 1.0000 30.0000
-0.8318 -0.0556 -0.1483 1.0000 43.0000
-0.9119 -0.0554 -0.1668 1.0000 49.0000
-0.9288 -0.0508 -0.1706 1.0000 48.0000
-0.6032 -0.0561 -0.1027 1.0000 44.0000
-0.7264 -0.0639 -0.1328 1.0000 27.0000
-0.7384 -0.0605 -0.1356 1.0000 32.0000
-0.7417 -0.0562 -0.1363 1.0000 41.0000
-0.7740 -0.0541 -0.1441 1.0000 42.0000
-0.8121 -0.0519 -0.1533 1.0000 39.0000
-0.8347 -0.0483 -0.1588 1.0000 46.0000
-0.8369 -0.0433 -0.1593 1.0000 48.0000
-0.8692 -0.0398 -0.1671 1.0000 47.0000
-0.7966 -0.0312 -0.1493 1.0000 35.0000
-0.8008 0.0227 -0.1503 1.0000 39.0000
-0.8443 0.0289 -0.1609 1.0000 38.0000
-0.8568 0.0345 -0.1640 1.0000 40.0000
-0.8585 0.0398 -0.1645 1.0000 58.0000
-0.8524 0.0448 -0.1630 2.0000 57.0000
-0.8793 0.0515 -0.1697 1.0000 63.0000
-0.8489 0.0551 -0.1623 2.0000 48.0000
-0.8505 0.0604 -0.1628 2.0000 74.0000
-0.8501 0.0656 -0.1628 2.0000 47.0000
-0.8516 0.0710 -0.1633 2.0000 56.0000
-0.8453 0.0757 -0.1619 2.0000 44.0000
-0.8574 0.0821 -0.1649 2.0000 51.0000
-0.8627 0.0879 -0.1663 2.0000 56.0000
-0.8709 0.0941 -0.1685 1.0000 41.0000
-0.8703 0.0994 -0.1685 2.0000 53.0000
-0.8774 0.1057 -0.1704 2.0000 70.0000
-0.8748 0.1108 -0.1699 2.0000 45.0000
-0.8731 0.1161 -0.1697 2.0000 42.0000
-0.8579 0.1195 -0.1661 1.0000 55.0000
-0.8572 0.1247 -0.1661 1.0000 33.0000
-0.8526 0.1294 -0.1652 1.0000 54.0000
-0.8489 0.1342 -0.1645 1.0000 61.0000
-0.8499 0.1397 -0.1649 1.0000 56.0000
-0.8548 0.1459 -0.1663 2.0000 72.0000
-0.8616 0.1524 -0.1682 2.0000 73.0000
-0.8539 0.1565 -0.1666 2.0000 60.0000
-0.8214 0.1559 -0.1588 1.0000 59.0000
-0.8548 0.1675 -0.1673 2.0000 36.0000
-0.8166 0.1654 -0.1581 1.0000 54.0000
-0.8136 0.1701 -0.1576 1.0000 47.0000
-0.8554 0.1841 -0.1682 2.0000 55.0000
-0.8542 0.1893 -0.1682 2.0000 56.0000
-0.8227 0.1878 -0.1607 1.0000 38.0000
-0.8196 0.1924 -0.1602 1.0000 57.0000
-0.8128 0.1961 -0.1588 1.0000 46.0000
-0.8172 0.2024 -0.1602 1.0000 62.0000
-0.8075 0.2053 -0.1581 1.0000 64.0000
-0.8062 0.2103 -0.1581 1.0000 32.0000
-0.8134 0.2174 -0.1602 2.0000 45.0000
-0.8036 0.2201 -0.1581 2.0000 70.0000
-0.8050 0.2258 -0.1588 2.0000 42.0000
-0.8008 0.2300 -0.1581 2.0000 70.0000
-0.8003 0.2352 -0.1583 2.0000 56.0000
-0.7923 0.2381 -0.1567 2.0000 42.0000
-0.7927 0.2436 -0.1571 1.0000 56.0000
-0.8023 0.2519 -0.1600 2.0000 51.0000
-0.7924 0.2541 -0.1578 1.0000 49.0000
-0.8047 0.2635 -0.1614 2.0000 42.0000
-0.8077 0.2699 -0.1626 2.0000 59.0000
-0.8125 0.2770 -0.1642 2.0000 49.0000
-0.7887 0.2745 -0.1585 2.0000 36.0000
-0.8044 0.2854 -0.1630 2.0000 46.0000
-0.8009 0.2897 -0.1626 2.0000 71.0000
-0.7762 0.2863 -0.1567 2.0000 51.0000
-0.8063 0.3028 -0.1649 2.0000 44.0000
-0.8008 0.3064 -0.1640 2.0000 57.0000
-0.7962 0.3103 -0.1633 2.0000 59.0000
-0.7907 0.3137 -0.1623 2.0000 49.0000
-0.7815 0.3157 -0.1604 2.0000 62.0000
-0.7787 0.3201 -0.1602 2.0000 69.0000
-0.7740 0.3238 -0.1595 2.0000 47.0000
-0.7702 0.3278 -0.1590 2.0000 48.0000
-0.7726 0.3344 -0.1602 2.0000 50.0000
-0.7599 0.3345 -0.1574 2.0000 75.0000
-0.7845 0.3509 -0.1645 2.0000 60.0000
-0.7805 0.3549 -0.1640 2.0000 81.0000
-0.7642 0.3533 -0.1602 2.0000 66.0000
-0.7585 0.3563 -0.1593 2.0000 46.0000
-0.7651 0.3651 -0.1616 2.0000 69.0000
-0.7637 0.3702 -0.1619 2.0000 51.0000
-0.7693 0.3787 -0.1640 2.0000 45.0000
-0.7600 0.3800 -0.1621 2.0000 51.0000
-0.7611 0.3864 -0.1630 2.0000 82.0000
-0.7587 0.3911 -0.1630 2.0000 67.0000
-0.7606 0.3979 -0.1642 2.0000 48.0000
-0.7702 0.4089 -0.1675 2.0000 78.0000
-0.7454 0.4018 -0.1614 1.0000 42.0000
-0.7668 0.4193 -0.1680 2.0000 44.0000
-0.7668 0.4254 -0.1687 2.0000 45.0000
-0.7582 0.4268 -0.1671 2.0000 35.0000
-0.7378 0.4214 -0.1621 1.0000 35.0000
-0.7234 0.4191 -0.1588 1.0000 33.0000
-0.6990 0.4109 -0.1526 1.0000 52.0000
-0.7057 0.4206 -0.1552 1.0000 60.0000
-0.7106 0.4294 -0.1574 1.0000 39.0000
-0.7021 0.4302 -0.1557 1.0000 39.0000
-0.7003 0.4350 -0.1559 1.0000 47.0000
-0.6985 0.4398 -0.1562 1.0000 45.0000
-5.8172 3.6782 -1.6305 1.0000 41.0000
-5.7717 3.6991 -1.6239 2.0000 42.0000
-5.7448 3.7318 -1.6227 3.0000 47.0000
-5.7445 3.7820 -1.6293 5.0000 53.0000
-5.7301 3.8231 -1.6319 5.0000 53.0000
-5.7194 3.8668 -1.6357 5.0000 32.0000
-5.7028 3.9068 -1.6378 5.0000 44.0000
-5.6883 3.9484 -1.6407 5.0000 30.0000
-5.6695 3.9871 -1.6423 5.0000 37.0000
-5.6608 4.0331 -1.6471 6.0000 65.0000
-5.6470 4.0757 -1.6504 6.0000 44.0000
-5.6289 4.1154 -1.6525 6.0000 62.0000
