6.7631 -4.7371 4.1183 3.0000 85.0000
8.6142 -6.1123 5.2611 4.0000 104.0000
7.0232 -5.0487 4.3128 5.0000 90.0000
6.9928 -5.0923 4.3132 5.0000 66.0000
6.9290 -5.1111 4.2933 6.0000 77.0000
6.9154 -5.1670 4.3044 5.0000 91.0000
8.3612 -6.3271 5.2229 5.0000 171.0000
5.2762 -4.0445 3.3205 2.0000 195.0000
5.2109 -4.0454 3.2952 7.0000 47.0000
5.1874 -4.0784 3.2961 7.0000 43.0000
5.1623 -4.1102 3.2961 9.0000 63.0000
6.6068 -5.3264 4.2320 4.0000 176.0000
6.5712 -5.3645 4.2302 3.0000 144.0000
6.2454 -5.1628 4.0419 7.0000 144.0000
6.3902 -5.3488 4.1560 6.0000 200.0000
6.2663 -5.3108 4.0969 5.0000 241.0000
5.8045 -4.9811 3.8167 5.0000 183.0000
5.6061 -4.8709 3.7065 5.0000 164.0000
5.5404 -4.8739 3.6830 9.0000 129.0000
5.4375 -4.8428 3.6346 7.0000 108.0000
5.5135 -4.9715 3.7052 6.0000 74.0000
5.5027 -5.0233 3.7185 7.0000 95.0000
5.4718 -5.0570 3.7185 9.0000 75.0000
5.4341 -5.0844 3.7141 10.0000 72.0000
5.2564 -4.9790 3.6141 10.0000 82.0000
5.1016 -4.8921 3.5288 8.0000 120.0000
5.1371 -4.9870 3.5741 7.0000 106.0000
5.1077 -5.0197 3.5750 7.0000 114.0000
5.2267 -5.2000 3.6799 8.0000 146.0000
5.2307 -5.2682 3.7052 9.0000 76.0000
5.2422 -5.3450 3.7363 7.0000 182.0000
5.2872 -5.4575 3.7918 7.0000 159.0000
5.4110 -5.6542 3.9046 5.0000 47.0000
5.9659 -6.3109 4.3301 6.0000 107.0000
5.9522 -6.3743 4.3483 2.0000 44.0000
5.7933 -6.2809 4.2608 1.0000 55.0000
5.6566 -6.5234 4.3052 1.0000 47.0000
5.6083 -6.5484 4.2990 1.0000 32.0000
5.5831 -6.6005 4.3106 1.0000 41.0000
5.5614 -6.8258 4.3896 1.0000 33.0000
5.4964 -6.8312 4.3714 1.0000 49.0000
4.0935 -11.7978 6.2156 7.0000 58.0000
4.3036 -12.6531 6.6504 14.0000 125.0000
4.1896 -12.5704 6.5936 9.0000 59.0000
4.1474 -12.7032 6.6496 7.0000 57.0000
3.7965 -11.8751 6.2054 7.0000 56.0000
3.6743 -11.7408 6.1237 11.0000 67.0000
3.5594 -11.6235 6.0513 14.0000 70.0000
3.4952 -11.6691 6.0637 14.0000 48.0000
3.4233 -11.6895 6.0633 14.0000 63.0000
3.3337 -11.6483 6.0313 14.0000 36.0000
3.2661 -11.6823 6.0384 17.0000 62.0000
3.2290 -11.8292 6.1037 9.0000 44.0000
3.1017 -11.6436 5.9984 1.0000 28.0000
-0.2650 -6.5531 3.2761 1.0000 55.0000
-0.3142 -6.7464 3.3729 1.0000 44.0000
-0.3779 -7.1676 3.5830 1.0000 67.0000
-0.4244 -7.2089 3.6048 4.0000 44.0000
-0.4668 -7.1776 3.5906 7.0000 81.0000
-0.5078 -7.1317 3.5693 6.0000 78.0000
-0.5515 -7.1284 3.5693 6.0000 65.0000
-0.6022 -7.2088 3.6110 4.0000 56.0000
-0.6445 -7.1836 3.6004 2.0000 74.0000
-0.6718 -7.0038 3.5129 6.0000 121.0000
-0.7144 -6.9960 3.5111 9.0000 108.0000
-0.7568 -6.9870 3.5089 5.0000 108.0000
-0.7903 -6.9003 3.4680 3.0000 115.0000
-0.7548 -6.2496 3.1455 4.0000 140.0000
-0.7997 -6.2964 3.1713 7.0000 192.0000
-0.8460 -6.3491 3.2002 5.0000 116.0000
-0.9933 -7.1220 3.5897 6.0000 158.0000
-0.8492 -5.8258 2.9434 4.0000 155.0000
-0.8868 -5.8329 2.9497 7.0000 121.0000
-0.9197 -5.8087 2.9403 6.0000 101.0000
-0.9345 -5.6765 2.8768 7.0000 220.0000
-0.9615 -5.6248 2.8537 6.0000 109.0000
-0.9929 -5.6011 2.8448 9.0000 92.0000
-1.0264 -5.5905 2.8426 9.0000 75.0000
-1.0680 -5.6229 2.8622 6.0000 112.0000
-1.0996 -5.6012 2.8546 4.0000 109.0000
-1.3016 -6.4225 3.2734 4.0000 353.0000
-1.3007 -6.2214 3.1757 4.0000 368.0000
-1.5096 -7.0069 3.5781 4.0000 180.0000
-1.2458 -5.6137 2.8755 6.0000 158.0000
-1.2799 -5.6042 2.8746 2.0000 301.0000
-1.4902 -6.3464 3.2566 5.0000 143.0000
-1.5253 -6.3214 3.2486 3.0000 131.0000
-1.3882 -5.6014 2.8857 2.0000 218.0000
-1.4625 -5.7500 2.9661 4.0000 194.0000
-1.5897 -6.0938 3.1469 5.0000 226.0000
-1.6504 -6.1713 3.1917 3.0000 157.0000
-1.7859 -6.5180 3.3752 5.0000 263.0000
-1.7848 -6.3602 3.2997 8.0000 107.0000
-1.8255 -6.3552 3.3028 7.0000 127.0000
-1.8736 -6.3748 3.3188 3.0000 219.0000
-1.6054 -5.3404 2.7893 6.0000 148.0000
-1.6405 -5.3381 2.7933 6.0000 129.0000
-1.7092 -5.4425 2.8528 3.0000 240.0000
-2.6622 -8.3012 4.3466 5.0000 247.0000
-2.3609 -7.2084 3.7851 4.0000 211.0000
-2.0641 -6.1732 3.2517 3.0000 297.0000
-2.1097 -6.1833 3.2637 6.0000 128.0000
-2.1432 -6.1576 3.2570 14.0000 389.0000
-2.1830 -6.1502 3.2601 19.0000 135.0000
-2.2037 -6.0895 3.2353 14.0000 94.0000
-2.2103 -5.9927 3.1913 7.0000 133.0000
-2.3856 -6.3480 3.3867 4.0000 152.0000
-2.4614 -6.4295 3.4378 5.0000 158.0000
-2.9015 -7.4428 3.9850 3.0000 198.0000
-2.9630 -7.4648 4.0063 4.0000 176.0000
-2.5615 -6.3391 3.4143 3.0000 115.0000
-2.6014 -6.3257 3.4156 4.0000 118.0000
-2.6242 -6.2716 3.3952 3.0000 154.0000
-3.1025 -7.2893 3.9521 4.0000 210.0000
-3.1500 -7.2767 3.9557 8.0000 123.0000
-3.1787 -7.2211 3.9361 5.0000 162.0000
-3.1933 -7.1352 3.9002 4.0000 203.0000
-3.2467 -7.1367 3.9117 4.0000 191.0000
-3.3611 -7.2695 3.9952 6.0000 77.0000
-3.4254 -7.2910 4.0183 7.0000 106.0000
-3.4809 -7.2924 4.0308 7.0000 109.0000
-3.5150 -7.2492 4.0188 5.0000 126.0000
-3.4712 -7.0482 3.9197 4.0000 122.0000
-3.5436 -7.0853 3.9521 7.0000 106.0000
-3.5205 -6.9324 3.8793 9.0000 98.0000
-3.6660 -7.1106 3.9908 6.0000 111.0000
-3.7324 -7.1316 4.0152 8.0000 98.0000
-3.7799 -7.1157 4.0192 8.0000 127.0000
-3.3126 -6.1443 3.4853 5.0000 73.0000
-3.2634 -5.9651 3.3956 4.0000 92.0000
-3.8772 -6.9854 3.9854 8.0000 80.0000
-3.5354 -6.2783 3.5968 7.0000 254.0000
-3.2958 -5.7694 3.3188 9.0000 218.0000
-3.3109 -5.7142 3.2988 17.0000 81.0000
-3.3437 -5.6899 3.2965 19.0000 89.0000
-3.3836 -5.6777 3.3014 16.0000 99.0000
-3.4322 -5.6799 3.3148 7.0000 87.0000
-4.0453 -6.6031 3.8637 4.0000 125.0000
-4.0428 -6.5089 3.8233 9.0000 58.0000
-4.0664 -6.4582 3.8082 11.0000 59.0000
-4.1011 -6.4255 3.8038 13.0000 62.0000
-4.1527 -6.4191 3.8149 12.0000 66.0000
-4.2391 -6.4654 3.8575 4.0000 62.0000
-4.2941 -6.4624 3.8713 4.0000 43.0000
-4.3602 -6.4753 3.8948 7.0000 89.0000
-4.4119 -6.4662 3.9055 5.0000 187.0000
-4.4602 -6.4516 3.9130 6.0000 163.0000
-4.4997 -6.4241 3.9130 3.0000 131.0000
-4.1725 -5.8797 3.5990 6.0000 105.0000
-4.1965 -5.8372 3.5888 12.0000 92.0000
-4.2264 -5.8034 3.5839 8.0000 142.0000
-4.1386 -5.6101 3.4809 3.0000 168.0000
-4.0539 -5.4252 3.3823 5.0000 84.0000
-4.0974 -5.4138 3.3907 7.0000 91.0000
-4.1055 -5.3559 3.3703 4.0000 167.0000
-4.1685 -5.3695 3.3947 3.0000 195.0000
-4.2019 -5.3445 3.3952 5.0000 126.0000
-4.2251 -5.3067 3.3876 8.0000 79.0000
-4.2582 -5.2814 3.3880 9.0000 141.0000
-4.2956 -5.2614 3.3920 5.0000 94.0000
-4.4146 -5.3399 3.4596 5.0000 119.0000
-4.5139 -5.3925 3.5111 3.0000 196.0000
-6.4645 -7.6280 4.9817 5.0000 168.0000
-4.3873 -5.1123 3.3645 2.0000 177.0000
-4.4315 -5.1001 3.3743 7.0000 117.0000
-4.4621 -5.0722 3.3738 8.0000 108.0000
-4.4937 -5.0454 3.3743 8.0000 98.0000
-4.5582 -5.0550 3.3991 5.0000 156.0000
-4.6870 -5.1341 3.4711 10.0000 100.0000
-4.7567 -5.1467 3.4991 7.0000 106.0000
-6.1211 -6.5426 4.4665 4.0000 194.0000
-4.7338 -4.9975 3.4373 3.0000 223.0000
-4.8835 -5.0926 3.5226 6.0000 245.0000
-4.9053 -5.0529 3.5160 5.0000 199.0000
-4.9286 -5.0150 3.5106 5.0000 152.0000
-4.9593 -4.9847 3.5106 2.0000 148.0000
-5.7329 -5.6922 4.0299 4.0000 216.0000
-5.7728 -5.6620 4.0334 4.0000 93.0000
-5.8268 -5.6451 4.0467 5.0000 118.0000
-4.9986 -4.7834 3.4547 4.0000 150.0000
-4.9465 -4.6757 3.3991 3.0000 83.0000
-4.9757 -4.6458 3.3996 5.0000 58.0000
-5.0213 -4.6310 3.4111 2.0000 118.0000
-5.0171 -4.5706 3.3894 5.0000 163.0000
-5.0158 -4.5133 3.3698 6.0000 158.0000
-5.3721 -4.7748 3.5879 3.0000 170.0000
-6.0988 -5.3542 4.0481 5.0000 311.0000
-6.2296 -5.4018 4.1125 5.0000 109.0000
-6.3001 -5.3955 4.1369 5.0000 117.0000
-5.2682 -4.4557 3.4453 5.0000 120.0000
-6.3775 -5.3276 4.1445 5.0000 198.0000
-6.3479 -5.2370 4.1045 5.0000 323.0000
-6.2931 -5.1272 4.0490 4.0000 146.0000
-6.3014 -5.0700 4.0343 6.0000 107.0000
-6.3436 -5.0401 4.0414 8.0000 107.0000
-6.3786 -5.0044 4.0441 9.0000 97.0000
-6.5162 -5.0481 4.1111 8.0000 181.0000
-5.6035 -4.2860 3.5222 3.0000 87.0000
-6.4790 -4.8932 4.0499 2.0000 95.0000
-7.5143 -5.6033 4.6717 3.0000 118.0000
-6.1086 -4.4967 3.7851 7.0000 114.0000
-6.1273 -4.4528 3.7798 10.0000 70.0000
-6.1480 -4.4104 3.7758 8.0000 69.0000
-6.1113 -4.3275 3.7372 9.0000 79.0000
-6.1906 -4.3269 3.7691 7.0000 79.0000
-6.1573 -4.2476 3.7332 2.0000 61.0000
-6.1544 -4.1901 3.7158 1.0000 33.0000
-6.3487 -4.2094 3.8011 1.0000 20.0000
-6.5109 -4.2596 3.8820 1.0000 47.0000
-6.3991 -4.1307 3.8007 1.0000 43.0000
-12.3613 -7.8737 7.2905 7.0000 64.0000
-12.3100 -7.7353 7.2323 14.0000 54.0000
-12.3595 -7.6610 7.2336 13.0000 60.0000
-12.4392 -7.6051 7.2527 14.0000 70.0000
-12.4779 -7.5240 7.2483 12.0000 62.0000
-12.5246 -7.4478 7.2487 9.0000 58.0000
-12.5693 -7.3703 7.2483 9.0000 56.0000
-12.5941 -7.2814 7.2367 10.0000 66.0000
-12.5584 -7.1583 7.1910 11.0000 54.0000
-12.5349 -7.0434 7.1528 12.0000 54.0000
-12.5802 -6.9676 7.1541 10.0000 71.0000
-12.6047 -6.8804 7.1439 10.0000 108.0000
-12.7508 -6.8590 7.2025 10.0000 97.0000
-12.4262 -6.5863 6.9969 7.0000 111.0000
-12.3599 -6.4544 6.9374 9.0000 69.0000
-12.6694 -6.5174 7.0879 10.0000 74.0000
-12.8753 -6.5237 7.1803 10.0000 67.0000
-12.8526 -6.4134 7.1457 9.0000 75.0000
-12.5090 -6.1463 6.9343 7.0000 100.0000
-12.5343 -6.0636 6.9276 10.0000 74.0000
-12.6239 -6.0116 6.9565 10.0000 72.0000
-12.6735 -5.9401 6.9636 9.0000 90.0000
-12.0060 -5.5376 6.5794 11.0000 94.0000
-12.0700 -5.4775 6.5958 8.0000 62.0000
-12.1655 -5.4311 6.6296 13.0000 65.0000
-12.1346 -5.3283 6.5949 11.0000 73.0000
-13.6542 -5.8960 7.3980 12.0000 99.0000
-13.2027 -5.6052 7.1355 6.0000 142.0000
-13.1542 -5.4895 7.0911 11.0000 59.0000
-13.2597 -5.4383 7.1297 8.0000 61.0000
-13.3876 -5.3950 7.1803 7.0000 120.0000
-12.9056 -5.1089 6.9058 10.0000 78.0000
-12.8599 -4.9998 6.8650 10.0000 67.0000
-12.8016 -4.8869 6.8179 10.0000 56.0000
-13.1460 -4.9262 6.9845 8.0000 77.0000
-13.8966 -5.1105 7.3651 8.0000 48.0000
-13.9782 -5.0434 7.3918 6.0000 44.0000
-14.0528 -4.9731 7.4149 9.0000 60.0000
-13.7047 -4.7554 7.2163 12.0000 87.0000
-13.5241 -4.6000 7.1066 10.0000 112.0000
-14.5389 -4.8459 7.6223 9.0000 40.0000
-14.5624 -4.7546 7.6192 11.0000 83.0000
-14.6536 -4.6851 7.6516 6.0000 49.0000
-14.4392 -4.5191 7.5255 7.0000 107.0000
-14.2842 -4.3745 7.4308 9.0000 80.0000
-13.9984 -4.1932 7.2692 10.0000 56.0000
-14.1494 -4.1440 7.3340 10.0000 78.0000
-14.1995 -4.0642 7.3469 10.0000 98.0000
-14.2052 -3.9717 7.3371 11.0000 90.0000
-14.1671 -3.8675 7.3051 6.0000 134.0000
-13.6469 -3.6356 7.0262 7.0000 99.0000
-13.7401 -3.5703 7.0626 9.0000 67.0000
-13.7886 -3.4927 7.0764 10.0000 71.0000
-13.6715 -3.3739 7.0058 6.0000 43.0000
-15.0004 -3.6045 7.6729 8.0000 61.0000
-15.0344 -3.5152 7.6791 8.0000 54.0000
-15.1553 -3.4456 7.7298 7.0000 72.0000
-14.1753 -3.1313 7.2216 6.0000 57.0000
-14.1680 -3.0387 7.2083 12.0000 69.0000
-14.1767 -2.9497 7.2034 9.0000 90.0000
-14.1594 -2.8555 7.1857 12.0000 67.0000
-14.1661 -2.7665 7.1803 8.0000 77.0000
-14.0772 -2.6596 7.1270 8.0000 83.0000
-15.0363 -2.7455 7.6023 6.0000 71.0000
-14.2385 -2.5095 7.1923 12.0000 72.0000
-14.4435 -2.4544 7.2878 9.0000 56.0000
-14.4229 -2.3599 7.2701 12.0000 81.0000
-14.4088 -2.2669 7.2558 10.0000 69.0000
-14.7759 -2.2319 7.4331 10.0000 66.0000
-14.7033 -2.1287 7.3900 9.0000 49.0000
-14.6496 -2.0293 7.3567 11.0000 48.0000
-14.7888 -1.9561 7.4202 10.0000 48.0000
-14.9889 -1.8891 7.5143 12.0000 65.0000
-14.9949 -1.7965 7.5117 11.0000 51.0000
-14.9780 -1.7013 7.4979 9.0000 56.0000
-14.9517 -1.6055 7.4797 4.0000 91.0000
-15.5808 -1.5764 7.7884 8.0000 59.0000
-15.6749 -1.4888 7.8306 10.0000 54.0000
-15.7266 -1.3964 7.8519 11.0000 34.0000
-15.7429 -1.3006 7.8559 10.0000 37.0000
-15.7139 -1.2012 7.8377 9.0000 43.0000
-15.6978 -1.1031 7.8262 10.0000 49.0000
-15.7203 -1.0078 7.8341 12.0000 38.0000
-15.7298 -0.9115 7.8359 12.0000 51.0000
-14.2404 -2.2359 6.9287 8.0000 51.0000
-14.2681 -2.1506 6.9356 8.0000 40.0000
-14.2792 -2.0628 6.9347 10.0000 62.0000
-14.3425 -1.9822 6.9594 5.0000 101.0000
-14.5163 -1.9156 7.0375 9.0000 94.0000
-14.9913 -1.8849 7.2613 9.0000 103.0000
-14.9622 -1.7880 7.2418 15.0000 58.0000
-15.0312 -1.7028 7.2699 12.0000 70.0000
-15.0118 -1.6073 7.2557 10.0000 66.0000
-15.0124 -1.5143 7.2513 11.0000 89.0000
-15.4389 -1.4618 7.4522 10.0000 109.0000
-15.5087 -1.3725 7.4816 12.0000 77.0000
-15.5482 -1.2799 7.4967 10.0000 60.0000
-14.3795 -1.0946 6.9317 9.0000 80.0000
-14.3860 -1.0063 6.9317 12.0000 70.0000
-14.8248 -0.9458 7.1395 5.0000 58.0000
-14.8033 -0.8532 7.1265 15.0000 54.0000
-14.8074 -0.7623 7.1261 5.0000 31.0000
-15.0135 12.4150 9.3553 1.0000 36.0000
-14.8562 12.4391 9.3047 4.0000 32.0000
-14.8243 12.5680 9.3328 1.0000 40.0000
-14.7886 12.6945 9.3592 1.0000 41.0000
-5.5705 8.0812 4.7259 1.0000 38.0000
-5.5696 8.1867 4.7673 11.0000 51.0000
-5.5006 8.1931 4.7513 13.0000 43.0000
-5.4677 8.2530 4.7665 14.0000 71.0000
-5.4204 8.2917 4.7695 14.0000 62.0000
-5.3606 8.3111 4.7617 14.0000 63.0000
-5.7485 9.0331 5.1530 9.0000 54.0000
-5.6258 8.9612 5.0926 16.0000 204.0000
-5.2034 8.4030 4.7587 13.0000 53.0000
-5.2247 8.5541 4.8256 13.0000 81.0000
-5.3095 8.8138 4.9531 13.0000 134.0000
-5.6084 9.4400 5.2839 13.0000 122.0000
-5.3291 9.0969 5.0744 10.0000 186.0000
-5.3061 9.1864 5.1060 10.0000 84.0000
-5.3453 9.3865 5.1984 9.0000 81.0000
-5.3649 9.5567 5.2740 14.0000 66.0000
-5.3000 9.5784 5.2679 9.0000 123.0000
-4.0122 7.3593 4.0395 6.0000 299.0000
-4.2840 7.9732 4.3600 5.0000 322.0000
-3.9022 7.3713 4.0197 8.0000 291.0000
-3.8539 7.3895 4.0166 7.0000 92.0000
-4.1250 8.0282 4.3479 13.0000 128.0000
-4.0251 7.9536 4.2944 13.0000 102.0000
-3.9557 7.9370 4.2723 12.0000 66.0000
-3.8946 7.9360 4.2589 13.0000 85.0000
-3.7735 7.8104 4.1795 14.0000 90.0000
-2.8496 5.9939 3.2037 8.0000 79.0000
-2.7821 5.9459 3.1692 10.0000 52.0000
-2.7339 5.9375 3.1558 11.0000 78.0000
-2.6829 5.9221 3.1390 12.0000 133.0000
-2.4097 5.4081 2.8608 11.0000 82.0000
-2.3692 5.4063 2.8522 15.0000 84.0000
-2.3271 5.4000 2.8414 15.0000 96.0000
-2.2808 5.3835 2.8254 12.0000 77.0000
-2.2436 5.3874 2.8202 14.0000 72.0000
-2.2033 5.3835 2.8111 16.0000 90.0000
-2.1733 5.4045 2.8150 18.0000 98.0000
-2.1401 5.4177 2.8150 17.0000 82.0000
-2.1146 5.4509 2.8254 14.0000 84.0000
-2.0866 5.4781 2.8327 13.0000 86.0000
-2.0672 5.5288 2.8522 13.0000 80.0000
-2.0413 5.5634 2.8634 13.0000 77.0000
-2.0304 5.6403 2.8962 6.0000 96.0000
-3.7441 10.5934 5.4062 6.0000 175.0000
-3.9898 11.5117 5.8601 7.0000 64.0000
-3.7724 11.1048 5.6420 12.0000 121.0000
-3.7125 11.1525 5.6545 10.0000 113.0000
-3.3142 10.1651 5.1457 8.0000 95.0000
-3.1450 9.8511 4.9777 10.0000 106.0000
-3.0799 9.8555 4.9703 9.0000 132.0000
-3.5245 11.5240 5.7966 8.0000 67.0000
-3.4470 11.5229 5.7854 8.0000 148.0000
-2.6827 9.1757 4.6036 10.0000 91.0000
-1.8174 6.3653 3.1955 4.0000 64.0000
-1.7712 6.3511 3.1830 11.0000 61.0000
-1.7218 6.3236 3.1640 13.0000 68.0000
-1.6795 6.3210 3.1575 14.0000 76.0000
-1.6384 6.3224 3.1532 14.0000 77.0000
-1.5962 6.3192 3.1467 17.0000 74.0000
-1.5648 6.3587 3.1614 13.0000 54.0000
-1.5310 6.3901 3.1722 12.0000 65.0000
-1.5024 6.4450 3.1947 14.0000 44.0000
-1.4665 6.4699 3.2025 14.0000 77.0000
-2.2797 10.3406 5.0965 6.0000 110.0000
-2.2208 10.3756 5.1068 6.0000 98.0000
-2.4556 11.8239 5.8087 7.0000 67.0000
-2.4181 12.0129 5.8938 10.0000 77.0000
-2.0165 10.3483 5.0744 5.0000 87.0000
-1.9857 10.5342 5.1591 8.0000 160.0000
-1.8603 10.2134 4.9971 7.0000 67.0000
-1.7801 10.1252 4.9487 9.0000 101.0000
-1.5235 8.9916 4.3928 8.0000 65.0000
-1.5277 9.3639 4.5691 6.0000 263.0000
-1.5039 9.5869 4.6727 8.0000 142.0000
-1.4328 9.5148 4.6334 6.0000 117.0000
-1.3525 9.3726 4.5604 9.0000 90.0000
-1.2930 9.3664 4.5535 9.0000 81.0000
-1.2337 9.3607 4.5470 6.0000 220.0000
-1.2326 9.8156 4.7630 13.0000 141.0000
-1.1509 9.6438 4.6766 13.0000 70.0000
-1.0934 9.6651 4.6835 12.0000 64.0000
-1.0692 9.9989 4.8412 16.0000 84.0000
-1.0084 10.0107 4.8438 13.0000 53.0000
-0.9543 10.0939 4.8809 8.0000 189.0000
-0.9518 10.7697 5.2031 10.0000 161.0000
-0.8842 10.7574 5.1945 10.0000 153.0000
-0.8512 11.1952 5.4023 11.0000 140.0000
-0.7838 11.2182 5.4109 15.0000 125.0000
-0.7022 11.0239 5.3154 14.0000 74.0000
-0.6340 11.0189 5.3111 12.0000 66.0000
-0.5720 11.1307 5.3630 14.0000 49.0000
-0.5071 11.2079 5.3984 7.0000 55.0000
-0.4926 12.5869 6.0579 9.0000 53.0000
-0.3654 11.0898 5.3392 7.0000 123.0000
-0.3598 13.3899 6.4402 11.0000 89.0000
-0.2774 13.3793 6.4341 11.0000 39.0000
-0.1951 13.3708 6.4294 7.0000 42.0000
14.8431 28.7846 15.5353 7.0000 42.0000
14.3863 27.4831 14.8814 13.0000 39.0000
14.9879 28.2100 15.3237 9.0000 41.0000
14.7340 27.3259 14.8930 11.0000 59.0000
14.5388 26.5719 14.5311 21.0000 52.0000
14.7059 26.4901 14.5354 14.0000 38.0000
14.8912 26.4402 14.5578 15.0000 48.0000
15.0513 26.3452 14.5561 13.0000 35.0000
15.1471 26.1392 14.4935 19.0000 40.0000
15.2762 25.9929 14.4641 20.0000 51.0000
15.4322 25.8933 14.4611 18.0000 44.0000
15.6169 25.8413 14.4853 12.0000 30.0000
15.7709 25.7381 14.4814 14.0000 57.0000
15.9052 25.6033 14.4602 16.0000 40.0000
16.0903 25.5502 14.4857 14.0000 40.0000
16.2968 25.5293 14.5302 5.0000 45.0000
16.4575 25.4357 14.5341 7.0000 57.0000
17.8391 27.2041 15.6048 8.0000 43.0000
17.8395 26.8439 15.4610 12.0000 42.0000
17.9787 26.6966 15.4394 13.0000 45.0000
17.7798 26.0545 15.1314 16.0000 46.0000
17.9372 25.9420 15.1297 15.0000 28.0000
18.0883 25.8203 15.1232 13.0000 62.0000
17.7569 25.0189 14.7181 15.0000 50.0000
17.8895 24.8809 14.7012 11.0000 55.0000
17.8024 24.4419 14.5064 19.0000 38.0000
17.9553 24.3365 14.5090 17.0000 39.0000
18.1334 24.2649 14.5324 17.0000 35.0000
18.3211 24.2050 14.5635 17.0000 35.0000
18.4852 24.1129 14.5760 14.0000 35.0000
18.6533 24.0253 14.5920 10.0000 55.0000
18.8226 23.9388 14.6092 7.0000 29.0000
17.7660 22.3114 13.6841 3.0000 49.0000
20.0484 24.8639 15.3215 14.0000 47.0000
20.1874 24.7244 15.3116 19.0000 42.0000
17.6881 21.3932 13.3191 13.0000 47.0000
17.8370 21.3057 13.3325 14.0000 94.0000
18.1715 21.4367 13.4836 17.0000 43.0000
18.2927 21.3131 13.4763 16.0000 37.0000
18.4308 21.2093 13.4819 18.0000 50.0000
18.5397 21.0721 13.4668 17.0000 48.0000
18.5595 20.8354 13.3882 19.0000 43.0000
18.6121 20.6381 13.3346 26.0000 42.0000
18.6873 20.4675 13.2983 11.0000 48.0000
19.9878 21.6243 14.1276 15.0000 46.0000
20.1115 21.4920 14.1216 18.0000 31.0000
20.2851 21.4127 14.1510 16.0000 46.0000
20.6028 21.4825 14.2801 13.0000 46.0000
20.6682 21.2877 14.2348 16.0000 32.0000
20.7997 21.1618 14.2356 15.0000 41.0000
21.0240 21.1291 14.3000 14.0000 41.0000
21.2351 21.0810 14.3553 16.0000 47.0000
21.3615 20.9478 14.3535 13.0000 66.0000
14.3044 13.8543 9.5622 8.0000 41.0000
13.9018 13.2998 9.2391 8.0000 91.0000
13.9451 13.1783 9.2140 10.0000 56.0000
13.9961 13.0648 9.1946 10.0000 49.0000
14.1204 13.0196 9.2235 7.0000 43.0000
14.0707 12.8149 9.1397 8.0000 45.0000
14.2154 12.7880 9.1825 7.0000 49.0000
15.2697 13.5682 9.8079 5.0000 29.0000
14.0066 12.2925 8.9501 6.0000 35.0000
14.1847 12.2955 9.0153 5.0000 53.0000
14.1140 12.0833 8.9233 8.0000 66.0000
14.1210 11.9400 8.8814 9.0000 49.0000
14.2543 11.9034 8.9190 4.0000 85.0000
14.4599 11.9254 9.0015 9.0000 61.0000
14.0937 11.4786 8.7303 10.0000 69.0000
14.2700 11.4773 8.7955 9.0000 81.0000
14.1396 11.2302 8.6728 11.0000 37.0000
15.2598 11.9683 9.3129 6.0000 49.0000
15.3280 11.8706 9.3099 7.0000 38.0000
15.3840 11.7637 9.3000 10.0000 51.0000
14.4311 10.8950 8.6849 7.0000 56.0000
14.5382 10.8365 8.7091 3.0000 67.0000
15.9734 11.7550 9.5233 4.0000 78.0000
14.7401 10.7081 8.7506 3.0000 35.0000
14.7527 10.5796 8.7195 5.0000 58.0000
14.9271 10.5666 8.7838 6.0000 51.0000
14.8704 10.3901 8.7130 6.0000 66.0000
14.9086 10.2812 8.6983 13.0000 58.0000
15.1533 10.3134 8.8037 9.0000 42.0000
15.0262 10.0924 8.6940 6.0000 102.0000
15.1043 10.0110 8.7035 6.0000 73.0000
15.2711 9.9873 8.7640 9.0000 67.0000
15.5655 10.0441 8.8970 7.0000 73.0000
15.7044 9.9978 8.9411 12.0000 49.0000
15.9190 9.9977 9.0279 8.0000 56.0000
15.9908 9.9065 9.0339 9.0000 50.0000
16.0551 9.8105 9.0361 5.0000 65.0000
16.3181 9.8343 9.1497 5.0000 58.0000
16.3061 9.6911 9.1095 6.0000 53.0000
16.2353 9.5147 9.0374 9.0000 57.0000
16.5456 9.5607 9.1769 6.0000 70.0000
16.7802 9.5595 9.2741 7.0000 58.0000
16.8260 9.4493 9.2672 9.0000 55.0000
16.9420 9.3782 9.2991 12.0000 35.0000
16.9510 9.2477 9.2728 6.0000 31.0000
16.9875 9.1329 9.2620 8.0000 45.0000
16.9683 8.9888 9.2214 7.0000 37.0000
16.8585 8.7985 9.1324 11.0000 58.0000
17.4246 8.9585 9.4084 9.0000 50.0000
17.2621 8.7413 9.2918 4.0000 65.0000
15.5133 7.7361 8.3273 3.0000 47.0000
15.5589 7.6399 8.3264 2.0000 54.0000
18.0850 8.7438 9.6455 3.0000 39.0000
18.1815 8.6532 9.6684 2.0000 55.0000
16.3526 7.6596 8.6733 2.0000 43.0000
18.3289 8.4491 9.6909 2.0000 36.0000
27.7375 12.3781 14.5717 3.0000 42.0000
18.1010 7.8112 9.4667 3.0000 43.0000
29.3480 11.8217 15.1777 9.0000 43.0000
17.0783 6.7560 8.8210 4.0000 102.0000
17.1380 6.6582 8.8305 12.0000 63.0000
17.1895 6.5571 8.8361 5.0000 67.0000
18.9438 7.0940 9.7129 4.0000 69.0000
26.9017 9.8881 13.7514 5.0000 45.0000
19.0778 6.8784 9.7375 3.0000 68.0000
20.3023 7.1797 10.3383 8.0000 66.0000
19.9285 6.9102 10.1267 5.0000 74.0000
19.8629 6.7512 10.0723 4.0000 84.0000
19.8364 6.6066 10.0381 2.0000 65.0000
19.5207 6.3686 9.8589 3.0000 56.0000
19.5320 6.2399 9.8451 2.0000 52.0000
29.5407 9.2404 14.8485 3.0000 69.0000
18.0763 5.5310 9.0784 2.0000 59.0000
18.0711 5.4084 9.0590 17.0000 38.0000
18.0892 5.2931 9.0516 18.0000 37.0000
18.1161 5.1805 9.0490 16.0000 55.0000
18.2579 5.1001 9.1039 9.0000 44.0000
17.8729 4.8744 8.8974 3.0000 68.0000
17.8302 4.7454 8.8616 5.0000 68.0000
19.8187 5.1451 9.8313 3.0000 77.0000
21.3720 5.4089 10.5832 3.0000 78.0000
21.3917 5.2745 10.5768 3.0000 76.0000
26.2109 6.2933 12.9347 6.0000 78.0000
26.2947 6.1431 12.9571 8.0000 65.0000
27.7505 6.3041 13.6538 8.0000 54.0000
27.7279 6.1203 13.6240 4.0000 78.0000
26.3854 5.4851 12.9316 3.0000 74.0000
20.5216 4.1339 10.0507 5.0000 62.0000
18.3770 3.5843 8.9920 5.0000 86.0000
27.9407 5.2741 13.6426 5.0000 66.0000
28.1535 5.1356 13.7307 6.0000 66.0000
28.1347 4.9539 13.7065 5.0000 66.0000
27.7369 4.7086 13.4988 5.0000 70.0000
27.9451 4.5677 13.5860 7.0000 46.0000
27.9539 4.3932 13.5769 7.0000 48.0000
26.7354 4.0336 12.9740 4.0000 88.0000
26.7480 3.8678 12.9684 3.0000 80.0000
16.6930 2.3077 8.0958 3.0000 103.0000
26.7639 3.5353 12.9541 4.0000 79.0000
26.7708 3.3692 12.9472 11.0000 50.0000
26.8125 3.2075 12.9576 6.0000 55.0000
17.5281 1.8775 8.4677 2.0000 41.0000
28.9587 2.9250 13.9644 10.0000 43.0000
17.2722 1.5290 8.3294 1.0000 45.0000
17.2938 1.4240 8.3355 2.0000 63.0000
17.2995 1.3177 8.3342 1.0000 38.0000
17.3855 1.2170 8.3718 2.0000 23.0000
17.3279 1.1062 8.3407 1.0000 51.0000
17.9835 1.0374 8.6521 1.0000 32.0000
18.4256 0.8363 8.8586 1.0000 50.0000
18.6196 0.7307 8.9493 4.0000 39.0000
18.6589 0.6176 8.9661 2.0000 34.0000
18.0844 0.4874 8.6892 1.0000 28.0000
18.3585 0.3821 8.8192 1.0000 53.0000
18.5201 0.2719 8.8957 6.0000 43.0000
18.5205 0.1582 8.8953 14.0000 48.0000
18.4779 0.0445 8.8745 7.0000 38.0000
7.6685 -0.0311 3.6979 2.0000 51.0000
7.6988 -0.0784 3.7126 4.0000 44.0000
7.6820 -0.1254 3.7048 8.0000 68.0000
7.6801 -0.1725 3.7044 6.0000 69.0000
7.7574 -0.2218 3.7419 5.0000 73.0000
7.8190 -0.2716 3.7722 1.0000 62.0000
17.8076 -0.7226 8.5605 7.0000 68.0000
7.7781 -0.3658 3.7545 4.0000 73.0000
7.7055 -0.4098 3.7208 7.0000 54.0000
7.6803 -0.4558 3.7100 9.0000 43.0000
7.7224 -0.5058 3.7316 10.0000 60.0000
7.8307 -0.5611 3.7851 11.0000 63.0000
7.9080 -0.6154 3.8240 9.0000 79.0000
7.8933 -0.6630 3.8188 9.0000 57.0000
7.8001 -0.7035 3.7761 10.0000 98.0000
7.8468 -0.7562 3.8007 7.0000 134.0000
7.5343 -0.7729 3.6525 8.0000 120.0000
7.4451 -0.8100 3.6119 10.0000 88.0000
7.4508 -0.8569 3.6171 8.0000 69.0000
7.5018 -0.9094 3.6443 8.0000 63.0000
7.6535 -0.9754 3.7203 5.0000 107.0000
8.1105 -1.0840 3.9441 4.0000 125.0000
7.7125 -1.0792 3.7549 6.0000 139.0000
7.6798 -1.1228 3.7424 7.0000 99.0000
7.6104 -1.1604 3.7121 4.0000 115.0000
7.5995 -1.2065 3.7104 5.0000 86.0000
7.6463 -1.2620 3.7367 5.0000 88.0000
7.7380 -1.3259 3.7851 8.0000 111.0000
7.7803 -1.3824 3.8097 4.0000 66.0000
7.7238 -1.4213 3.7864 5.0000 73.0000
7.6803 -1.4621 3.7696 8.0000 87.0000
15.2047 -2.9871 7.4461 9.0000 87.0000
15.1719 -3.0774 7.4392 8.0000 95.0000
14.8181 -3.1006 7.2755 7.0000 80.0000
7.7929 -1.6826 3.8434 6.0000 59.0000
7.6997 -1.7120 3.8028 10.0000 43.0000
7.6811 -1.7574 3.7989 11.0000 57.0000
7.6886 -1.8089 3.8080 7.0000 68.0000
9.7676 -2.3601 4.8377 5.0000 90.0000
9.7310 -2.4146 4.8269 8.0000 89.0000
9.7274 -2.4772 4.8325 8.0000 80.0000
8.1149 -2.1204 4.0421 5.0000 68.0000
9.3617 -2.5069 4.6667 7.0000 71.0000
7.7812 -2.1357 3.8896 5.0000 70.0000
7.6091 -2.1388 3.8106 9.0000 79.0000
7.5377 -2.1688 3.7817 11.0000 132.0000
7.5364 -2.2185 3.7877 6.0000 105.0000
7.5520 -2.2736 3.8024 3.0000 134.0000
8.8363 -2.7187 4.4529 5.0000 163.0000
7.7171 -2.4268 3.8996 4.0000 119.0000
7.7193 -2.4797 3.9082 8.0000 58.0000
8.7385 -2.8657 4.4296 5.0000 129.0000
8.7772 -2.9382 4.4581 5.0000 98.0000
8.8435 -3.0208 4.5008 8.0000 62.0000
8.8069 -3.0688 4.4918 8.0000 73.0000
10.1428 -3.6035 5.1803 4.0000 156.0000
6.7331 -2.4403 3.4551 12.0000 90.0000
6.6985 -2.4743 3.4452 19.0000 79.0000
6.6934 -2.5192 3.4504 16.0000 69.0000
6.6972 -2.5676 3.4603 4.0000 218.0000
9.3863 -3.6630 4.8507 5.0000 177.0000
7.8094 -3.1038 4.0499 7.0000 144.0000
7.7175 -3.1222 4.0123 9.0000 47.0000
7.6223 -3.1383 3.9730 11.0000 40.0000
7.5305 -3.1547 3.9354 12.0000 84.0000
7.4388 -3.1702 3.8979 15.0000 60.0000
7.3911 -3.2036 3.8832 14.0000 68.0000
7.2664 -3.2027 3.8283 12.0000 69.0000
7.1454 -3.2019 3.7752 12.0000 68.0000
7.0542 -3.2132 3.7376 14.0000 53.0000
7.0171 -3.2485 3.7285 17.0000 72.0000
6.9979 -3.2919 3.7290 17.0000 57.0000
7.0036 -3.3472 3.7428 12.0000 78.0000
7.2126 -3.5014 3.8650 5.0000 109.0000
8.7348 -4.3058 4.6891 7.0000 217.0000
8.7873 -4.3989 4.7315 7.0000 74.0000
8.8172 -4.4817 4.7621 6.0000 142.0000
9.3066 -4.8023 5.0407 4.0000 71.0000
7.7395 -4.0547 4.2097 4.0000 110.0000
5.9764 -3.1790 3.2672 11.0000 98.0000
5.9290 -3.2007 3.2521 19.0000 84.0000
5.9069 -3.2357 3.2508 20.0000 67.0000
5.8972 -3.2776 3.2564 18.0000 83.0000
5.8793 -3.3150 3.2577 11.0000 123.0000
7.2287 -4.1333 4.0132 5.0000 91.0000
7.1922 -4.1713 4.0071 5.0000 83.0000
6.4721 -3.8074 3.6214 9.0000 81.0000
6.4393 -3.8415 3.6162 18.0000 94.0000
6.4179 -3.8823 3.6175 17.0000 87.0000
6.4209 -3.9381 3.6327 6.0000 164.0000
7.2885 -4.5313 4.1354 3.0000 178.0000
7.4338 -4.6850 4.2335 5.0000 159.0000
7.2559 -4.6354 4.1488 9.0000 119.0000
7.1735 -4.6451 4.1181 10.0000 82.0000
7.1577 -4.6974 4.1255 8.0000 123.0000
7.5164 -4.9988 4.3484 9.0000 129.0000
7.6374 -5.1470 4.4360 4.0000 135.0000
7.0790 -4.8344 4.1307 5.0000 106.0000
7.0291 -4.8639 4.1190 3.0000 84.0000
7.7187 -5.4109 4.5397 4.0000 225.0000
7.1366 -5.0688 4.2175 6.0000 133.0000
7.1427 -5.1394 4.2395 8.0000 124.0000
7.2503 -5.2845 4.3220 9.0000 70.0000
7.1437 -5.2743 4.2780 7.0000 100.0000
7.0787 -5.2937 4.2585 4.0000 76.0000
6.9958 -5.2990 4.2283 6.0000 129.0000
6.8157 -5.2288 4.1393 5.0000 153.0000
5.2046 -4.0450 3.1822 9.0000 59.0000
5.1690 -4.0685 3.1757 7.0000 49.0000
5.1609 -4.1136 3.1860 11.0000 53.0000
5.1524 -4.1588 3.1964 7.0000 99.0000
7.1956 -5.8791 4.4753 5.0000 129.0000
7.1504 -5.9157 4.4697 5.0000 87.0000
6.3884 -5.3522 4.0166 7.0000 160.0000
6.3438 -5.3814 4.0093 6.0000 144.0000
5.9889 -5.1442 3.8063 6.0000 114.0000
7.0065 -6.0923 4.4719 5.0000 168.0000
6.7780 -5.9672 4.3501 4.0000 145.0000
5.4480 -4.8571 3.5208 4.0000 166.0000
5.4228 -4.8946 3.5238 4.0000 129.0000
5.3927 -4.9278 3.5238 4.0000 118.0000
5.3444 -4.9443 3.5121 5.0000 159.0000
5.2936 -4.9579 3.4988 5.0000 152.0000
5.2532 -4.9810 3.4923 5.0000 59.0000
6.0682 -5.8239 4.0534 7.0000 39.0000
5.8059 -5.6412 3.9022 10.0000 117.0000
5.5672 -5.4763 3.7653 9.0000 105.0000
5.5847 -5.5613 3.7998 8.0000 137.0000
5.6979 -5.7439 3.9000 4.0000 109.0000
5.6695 -5.7858 3.9048 7.0000 59.0000
5.6395 -5.8264 3.9087 3.0000 47.0000
5.6729 -5.9332 3.9566 1.0000 61.0000
6.1005 -6.4587 4.2801 1.0000 31.0000
4.9331 -12.2532 6.3512 1.0000 34.0000
4.8455 -12.2522 6.3352 2.0000 49.0000
4.7797 -12.3061 6.3478 1.0000 30.0000
4.7501 -12.4557 6.4095 1.0000 50.0000
4.4812 -12.4333 6.3547 3.0000 49.0000
4.3741 -12.3738 6.3106 10.0000 43.0000
4.2222 -12.1814 6.1996 14.0000 69.0000
4.1592 -12.2421 6.2173 17.0000 87.0000
4.1665 -12.5147 6.3421 14.0000 61.0000
4.0750 -12.4954 6.3197 13.0000 144.0000
3.8555 -12.0735 6.0951 14.0000 98.0000
3.7948 -12.1400 6.1167 10.0000 97.0000
3.9096 -12.7813 6.4264 8.0000 64.0000
3.4727 -11.6085 5.8281 14.0000 66.0000
3.4047 -11.6408 5.8338 16.0000 67.0000
3.3322 -11.6580 5.8320 16.0000 48.0000
3.2557 -11.6609 5.8234 12.0000 48.0000
3.1786 -11.6606 5.8135 10.0000 48.0000
2.8252 -10.6219 5.2891 11.0000 56.0000
2.7532 -10.6128 5.2761 15.0000 60.0000
2.6844 -10.6155 5.2692 12.0000 66.0000
2.5987 -10.5486 5.2282 13.0000 38.0000
2.5512 -10.6363 5.2636 1.0000 36.0000
-0.9536 -14.6173 7.0406 2.0000 31.0000
-1.0341 -14.4817 6.9784 9.0000 55.0000
-1.1314 -14.5848 7.0311 7.0000 49.0000
-1.1467 -13.6886 6.6039 5.0000 38.0000
-1.4443 -15.0274 7.2552 11.0000 45.0000
-1.5278 -14.9330 7.2142 15.0000 97.0000
-1.5267 -14.0671 6.8017 8.0000 93.0000
-1.6146 -14.0709 6.8082 10.0000 70.0000
-1.6959 -14.0195 6.7883 11.0000 91.0000
-0.8692 -6.8161 3.3160 6.0000 247.0000
-0.9075 -6.7847 3.3035 6.0000 168.0000
-1.0313 -7.3685 3.5886 9.0000 133.0000
-1.0564 -7.2237 3.5216 7.0000 115.0000
-1.0947 -7.1779 3.5026 7.0000 111.0000
-0.9504 -5.9809 2.9256 2.0000 187.0000
-0.9691 -5.8655 2.8725 6.0000 146.0000
-0.9700 -5.6541 2.7727 9.0000 134.0000
-0.9992 -5.6169 2.7576 10.0000 140.0000
-1.0281 -5.5805 2.7429 11.0000 120.0000
-1.0825 -5.6804 2.7947 9.0000 80.0000
-1.1199 -5.6870 2.8012 5.0000 131.0000
-1.3195 -6.4932 3.1986 5.0000 316.0000
-1.3332 -6.3596 3.1372 7.0000 195.0000
-1.3613 -6.3011 3.1126 6.0000 179.0000
-1.2959 -5.8233 2.8824 5.0000 122.0000
-1.3264 -5.7924 2.8712 8.0000 108.0000
-1.3351 -5.6700 2.8150 4.0000 239.0000
-1.5657 -6.4736 3.2150 5.0000 392.0000
-1.4158 -5.6987 2.8375 5.0000 323.0000
-1.4421 -5.6558 2.8206 10.0000 136.0000
-1.5068 -5.7621 2.8776 5.0000 113.0000
-1.5580 -5.8120 2.9070 6.0000 176.0000
-1.5989 -5.8214 2.9165 7.0000 132.0000
-2.3934 -8.5165 4.2620 7.0000 184.0000
-2.4428 -8.4922 4.2572 8.0000 166.0000
-2.5058 -8.5142 4.2758 6.0000 172.0000
-1.6276 -5.4021 2.7273 6.0000 222.0000
-1.6562 -5.3774 2.7200 8.0000 134.0000
-1.7000 -5.4015 2.7373 4.0000 236.0000
-2.5614 -7.9744 4.0365 6.0000 212.0000
-2.7580 -8.4093 4.2637 5.0000 296.0000
-2.5791 -7.7028 3.9156 4.0000 185.0000
-2.5864 -7.5699 3.8564 7.0000 176.0000
-2.5966 -7.4500 3.8037 5.0000 182.0000
-2.2713 -6.3884 3.2724 9.0000 95.0000
-2.3013 -6.3489 3.2595 7.0000 147.0000
-2.3558 -6.3770 3.2811 7.0000 75.0000
-2.4139 -6.4131 3.3070 7.0000 411.0000
-2.4071 -6.2777 3.2452 8.0000 124.0000
-2.3879 -6.1149 3.1692 16.0000 86.0000
-2.4191 -6.0842 3.1610 19.0000 97.0000
-2.4608 -6.0801 3.1666 18.0000 81.0000
-2.5419 -6.1717 3.2219 12.0000 170.0000
-2.7277 -6.5096 3.4055 10.0000 124.0000
-2.8477 -6.6811 3.5035 6.0000 259.0000
-3.1480 -7.2628 3.8162 4.0000 129.0000
-3.1744 -7.2020 3.7946 6.0000 267.0000
-2.6402 -5.8899 3.1165 3.0000 228.0000
-2.7681 -6.0756 3.2228 7.0000 356.0000
-3.0733 -6.6381 3.5286 5.0000 280.0000
-3.1853 -6.7709 3.6089 7.0000 158.0000
-3.2745 -6.8514 3.6620 6.0000 175.0000
-3.9228 -8.0818 4.3276 6.0000 106.0000
-3.6106 -7.3229 3.9354 5.0000 93.0000
-3.6635 -7.3167 3.9441 6.0000 88.0000
-3.7206 -7.3182 3.9570 8.0000 134.0000
-3.7576 -7.2800 3.9488 5.0000 211.0000
-4.5503 -8.6864 4.7215 8.0000 98.0000
-4.5844 -8.6225 4.7021 9.0000 140.0000
-4.6146 -8.5521 4.6792 5.0000 110.0000
-4.3359 -7.9183 4.3488 3.0000 207.0000
-3.3152 -5.9650 3.2936 6.0000 133.0000
-3.4544 -6.1269 3.3938 4.0000 142.0000
-3.3859 -5.9200 3.2914 5.0000 168.0000
-3.3399 -5.7570 3.2128 13.0000 77.0000
-3.3628 -5.7154 3.2012 18.0000 66.0000
-3.3964 -5.6924 3.1999 17.0000 66.0000
-3.4462 -5.6961 3.2137 15.0000 56.0000
-3.4995 -5.7049 3.2305 4.0000 126.0000
-4.0683 -6.5430 3.7152 3.0000 127.0000
-4.0675 -6.4530 3.6784 13.0000 52.0000
-4.1032 -6.4218 3.6750 15.0000 66.0000
-4.1488 -6.4064 3.6806 15.0000 50.0000
-4.2108 -6.4155 3.7005 6.0000 128.0000
-4.8999 -7.3676 4.2628 6.0000 152.0000
-5.2684 -7.8177 4.5401 5.0000 197.0000
-4.1630 -6.0948 3.5601 10.0000 118.0000
-4.1957 -6.0624 3.5562 8.0000 259.0000
-4.4175 -6.3003 3.7104 6.0000 210.0000
-5.4994 -7.7435 4.5738 5.0000 201.0000
-5.6073 -7.7938 4.6235 6.0000 161.0000
-5.1741 -7.0987 4.2322 3.0000 178.0000
-5.2138 -7.0617 4.2291 6.0000 126.0000
-3.8265 -5.1149 3.0845 3.0000 98.0000
-3.8492 -5.0798 3.0776 7.0000 65.0000
-5.3248 -6.9409 4.2149 7.0000 184.0000
-5.3590 -6.8974 4.2084 10.0000 132.0000
-5.3326 -6.7772 4.1553 9.0000 178.0000
-5.4674 -6.8615 4.2270 7.0000 277.0000
-5.1245 -6.3503 3.9333 6.0000 227.0000
-5.1907 -6.3523 3.9540 11.0000 75.0000
-5.2463 -6.3405 3.9665 17.0000 90.0000
-5.2359 -6.2494 3.9298 11.0000 121.0000
-5.2397 -6.1766 3.9043 6.0000 352.0000
-4.6150 -5.3722 3.4171 8.0000 87.0000
-4.6307 -5.3240 3.4046 8.0000 138.0000
-4.5490 -5.1655 3.3217 5.0000 150.0000
-5.5337 -6.2078 4.0080 7.0000 102.0000
-5.5722 -6.1744 4.0084 8.0000 82.0000
-5.6252 -6.1567 4.0192 11.0000 78.0000
-5.6739 -6.1340 4.0270 8.0000 102.0000
-5.0158 -5.3555 3.5394 4.0000 87.0000
-5.7382 -6.0528 4.0197 6.0000 60.0000
-5.7859 -6.0285 4.0270 6.0000 84.0000
-5.8008 -5.9703 4.0119 9.0000 121.0000
-4.8385 -4.9181 3.3294 6.0000 91.0000
-5.8634 -5.8884 4.0050 7.0000 151.0000
-5.9250 -5.8777 4.0223 10.0000 63.0000
-5.9494 -5.8299 4.0145 8.0000 88.0000
-4.9953 -4.8343 3.3545 6.0000 126.0000
-5.0034 -4.7830 3.3402 9.0000 87.0000
-5.0215 -4.7417 3.3329 3.0000 118.0000
-6.1783 -5.7640 4.0719 5.0000 204.0000
-6.2209 -5.7327 4.0767 8.0000 91.0000
-6.3453 -5.7758 4.1346 4.0000 215.0000
-6.3799 -5.7362 4.1341 5.0000 123.0000
-5.1801 -4.5992 3.3428 3.0000 58.0000
-6.2736 -5.5028 4.0218 9.0000 131.0000
-6.3366 -5.4896 4.0404 7.0000 122.0000
-6.4030 -5.4787 4.0611 5.0000 109.0000
-5.5765 -4.7118 3.5216 4.0000 189.0000
-5.7693 -4.8146 3.6240 8.0000 81.0000
-5.7814 -4.7647 3.6132 7.0000 92.0000
-5.5084 -4.4830 3.4266 7.0000 115.0000
-5.5000 -4.4203 3.4046 9.0000 102.0000
-5.5496 -4.4044 3.4184 4.0000 96.0000
-6.4436 -5.0507 3.9462 5.0000 149.0000
-7.4227 -5.7457 4.5207 5.0000 274.0000
-5.7308 -4.3788 3.4793 4.0000 72.0000
-5.7575 -4.3436 3.4793 4.0000 68.0000
-7.5294 -5.6097 4.5220 8.0000 47.0000
-6.1031 -4.4881 3.6534 6.0000 53.0000
-6.0948 -4.4246 3.6322 6.0000 75.0000
-6.0668 -4.3477 3.5998 3.0000 55.0000
-6.1788 -4.3708 3.6499 4.0000 56.0000
-6.2824 -4.3866 3.6949 3.0000 69.0000
-6.2431 -4.3023 3.6564 1.0000 43.0000
-6.3693 -4.3320 3.7143 1.0000 56.0000
-6.5993 -4.3711 3.8162 1.0000 51.0000
-12.8002 -8.0380 7.2639 2.0000 43.0000
-12.6724 -7.7425 7.1373 9.0000 52.0000
-12.5729 -7.5761 7.0553 12.0000 44.0000
-12.6091 -7.4928 7.0496 17.0000 61.0000
-12.6206 -7.3952 7.0306 13.0000 47.0000
-12.6236 -7.2933 7.0073 12.0000 64.0000
-12.5733 -7.1616 6.9550 12.0000 62.0000
-12.7727 -7.1718 7.0406 11.0000 93.0000
-12.5718 -6.9579 6.9067 8.0000 75.0000
-13.2603 -7.2332 7.2591 10.0000 102.0000
-13.3314 -7.1662 7.2738 11.0000 86.0000
-13.3385 -7.0649 7.2539 8.0000 111.0000
-12.4462 -6.4944 6.7486 5.0000 82.0000
-12.5083 -6.4295 6.7607 10.0000 66.0000
-12.5620 -6.3600 6.7685 5.0000 84.0000
-12.7089 -6.3367 6.8263 9.0000 104.0000
-12.6391 -6.2053 6.7685 10.0000 64.0000
-12.6753 -6.1269 6.7676 10.0000 69.0000
-12.7892 -6.0854 6.8082 12.0000 72.0000
-12.8271 -6.0072 6.8086 11.0000 50.0000
-12.7458 -5.8740 6.7464 6.0000 136.0000
-12.1837 -5.5244 6.4320 12.0000 87.0000
-12.2141 -5.4480 6.4303 11.0000 86.0000
-12.1878 -5.3469 6.3992 13.0000 81.0000
-12.2113 -5.2681 6.3944 13.0000 84.0000
-12.2591 -5.1997 6.4026 12.0000 54.0000
-12.3541 -5.1508 6.4354 4.0000 105.0000
-13.0881 -5.3631 6.7991 8.0000 85.0000
-13.0479 -5.2533 6.7615 8.0000 77.0000
-12.8267 -5.0729 6.6311 11.0000 52.0000
-12.8559 -4.9935 6.6302 11.0000 60.0000
-12.8905 -4.9161 6.6324 8.0000 113.0000
-12.9533 -4.8493 6.6492 6.0000 137.0000
-12.9481 -4.7569 6.6315 12.0000 63.0000
-13.2604 -4.7796 6.7758 11.0000 93.0000
-13.3380 -4.7153 6.8004 12.0000 52.0000
-13.0020 -4.5069 6.6155 11.0000 126.0000
-12.9611 -4.4038 6.5810 10.0000 108.0000
-14.6820 -4.8888 7.4362 12.0000 51.0000
-14.8695 -4.8501 7.5157 7.0000 56.0000
-13.9592 -4.4583 7.0432 9.0000 47.0000
-13.9768 -4.3696 7.0384 11.0000 44.0000
-14.1482 -4.3281 7.1110 8.0000 68.0000
-14.2989 -4.2785 7.1732 9.0000 74.0000
-14.2652 -4.1732 7.1434 12.0000 68.0000
-14.2541 -4.0752 7.1252 13.0000 73.0000
-14.2736 -3.9862 7.1226 13.0000 83.0000
-14.3126 -3.9026 7.1300 6.0000 133.0000
-13.7219 -3.6510 6.8255 12.0000 70.0000
-13.7615 -3.5713 6.8341 9.0000 39.0000
-13.8190 -3.4958 6.8518 9.0000 59.0000
-13.8761 -3.4198 6.8695 12.0000 63.0000
-13.9801 -3.3546 6.9106 8.0000 58.0000
-15.1377 -3.5347 7.4699 5.0000 108.0000
-14.3307 -3.2534 7.0630 5.0000 44.0000
-14.3292 -3.1608 7.0527 6.0000 44.0000
-14.3395 -3.0709 7.0483 7.0000 44.0000
-14.3651 -2.9843 7.0518 7.0000 85.0000
-14.3894 -2.8974 7.0548 9.0000 33.0000
-14.4060 -2.8088 7.0544 8.0000 73.0000
-14.2652 -2.6906 6.9775 12.0000 79.0000
-14.4154 -2.6275 7.0427 5.0000 76.0000
-14.5565 -2.5610 7.1036 9.0000 53.0000
-14.4181 -2.4455 7.0289 10.0000 69.0000
-14.4168 -2.3544 7.0211 12.0000 50.0000
-15.0541 12.2699 9.0242 5.0000 38.0000
-14.9330 12.3245 8.9969 2.0000 31.0000
-14.7882 12.3583 8.9553 6.0000 33.0000
-14.8866 12.5965 9.0612 1.0000 37.0000
-14.6637 12.5630 8.9725 2.0000 44.0000
-14.6364 12.6962 9.0032 1.0000 31.0000
-14.6454 12.8624 9.0570 1.0000 36.0000
-5.6327 8.1473 4.6151 1.0000 37.0000
-5.6163 8.2312 4.6428 3.0000 42.0000
-5.5900 8.3017 4.6630 6.0000 42.0000
-5.5129 8.2965 4.6411 8.0000 48.0000
-5.4569 8.3226 4.6369 11.0000 69.0000
-5.4836 8.4763 4.7034 6.0000 35.0000
-5.6193 8.8043 4.8652 7.0000 51.0000
-5.5820 8.8655 4.8799 9.0000 41.0000
-5.5448 8.9274 4.8951 12.0000 48.0000
-5.6467 9.2174 5.0342 6.0000 108.0000
-5.5619 9.2052 5.0090 11.0000 63.0000
-5.5262 9.2743 5.0279 11.0000 74.0000
-5.3493 9.1038 4.9182 7.0000 139.0000
-4.2342 7.3068 3.9386 12.0000 63.0000
-4.2055 7.3610 3.9538 11.0000 88.0000
-4.1829 7.4270 3.9752 9.0000 61.0000
-4.1540 7.4826 3.9912 6.0000 59.0000
-4.1102 7.5120 3.9933 7.0000 122.0000
-4.0206 7.4564 3.9508 8.0000 104.0000
-3.9854 7.5009 3.9613 8.0000 84.0000
-3.9826 7.6081 4.0046 8.0000 94.0000
-4.0289 7.8130 4.0988 4.0000 79.0000
-3.9673 7.8109 4.0849 10.0000 80.0000
-4.0264 8.0494 4.1959 3.0000 195.0000
-3.9937 8.1081 4.2136 10.0000 45.0000
-3.9526 8.1505 4.2228 8.0000 80.0000
-3.6936 7.7364 3.9979 9.0000 147.0000
-3.6511 7.7696 4.0034 9.0000 63.0000
-2.7531 5.9508 3.0638 8.0000 59.0000
-2.7067 5.9461 3.0529 9.0000 78.0000
-2.6561 5.9311 3.0369 8.0000 87.0000
-2.4181 5.4888 2.8048 6.0000 101.0000
-2.3501 5.4245 2.7649 8.0000 45.0000
-2.3065 5.4146 2.7527 8.0000 69.0000
-2.2649 5.4085 2.7426 9.0000 68.0000
-2.2192 5.3921 2.7275 10.0000 89.0000
-2.1861 5.4056 2.7275 12.0000 77.0000
-2.1519 5.4164 2.7262 11.0000 63.0000
-2.1160 5.4227 2.7228 12.0000 75.0000
-2.0901 5.4551 2.7325 11.0000 81.0000
-2.0585 5.4729 2.7350 11.0000 88.0000
-2.0403 5.5272 2.7556 9.0000 95.0000
-2.0115 5.5541 2.7628 10.0000 70.0000
-2.0008 5.6322 2.7951 6.0000 61.0000
-3.8451 11.0506 5.4470 9.0000 89.0000
-4.0353 11.8315 5.8178 7.0000 103.0000
-3.3708 10.0831 4.9518 5.0000 82.0000
-3.2897 10.0450 4.9232 7.0000 47.0000
-3.2335 10.0823 4.9316 7.0000 44.0000
-3.1224 9.9452 4.8555 6.0000 75.0000
-3.4997 11.3929 5.5479 8.0000 59.0000
-3.4234 11.3933 5.5379 7.0000 62.0000
-3.3256 11.3191 5.4920 13.0000 56.0000
-3.3244 11.5774 5.6068 7.0000 80.0000
-1.7796 6.3371 3.0756 7.0000 52.0000
-1.7294 6.3067 3.0558 8.0000 61.0000
-1.6879 6.3067 3.0508 8.0000 79.0000
-1.6485 6.3143 3.0495 10.0000 71.0000
-1.6108 6.3287 3.0516 10.0000 84.0000
-1.5752 6.3517 3.0579 10.0000 80.0000
-1.5420 6.3850 3.0692 10.0000 48.0000
-1.5061 6.4085 3.0760 9.0000 61.0000
-1.4774 6.4645 3.0983 8.0000 59.0000
-1.4487 6.5231 3.1218 6.0000 85.0000
-2.0575 9.5496 4.5520 5.0000 85.0000
-2.2512 10.7718 5.1246 6.0000 144.0000
-2.1782 10.7517 5.1086 4.0000 67.0000
-2.1124 10.7657 5.1090 5.0000 95.0000
-2.2466 11.8358 5.6076 9.0000 94.0000
-2.3094 12.5892 5.9562 7.0000 90.0000
-1.8245 10.2971 4.8711 7.0000 53.0000
-1.7501 10.2428 4.8404 5.0000 171.0000
-1.9028 11.5668 5.4571 6.0000 144.0000
-1.8310 11.5729 5.4546 7.0000 99.0000
-1.5984 10.5181 4.9552 5.0000 149.0000
-1.3701 9.4009 4.4276 7.0000 58.0000
-1.3041 9.3498 4.3998 9.0000 83.0000
-1.2481 9.3675 4.4044 11.0000 82.0000
-1.2144 9.5631 4.4923 6.0000 107.0000
-1.2864 10.6568 4.9993 6.0000 193.0000
-1.3016 11.3713 5.3289 4.0000 123.0000
-1.0415 9.6145 4.5066 7.0000 101.0000
-0.9850 9.6460 4.5184 10.0000 75.0000
-0.9315 9.7115 4.5461 8.0000 185.0000
-0.8814 9.8237 4.5957 9.0000 109.0000
-0.8377 10.0278 4.6882 7.0000 69.0000
-0.8183 10.5810 4.9430 6.0000 121.0000
-0.7553 10.6130 4.9556 7.0000 195.0000
-0.7380 11.3581 5.2995 13.0000 100.0000
-0.6627 11.2664 5.2549 8.0000 65.0000
-0.5802 11.0156 5.1368 11.0000 71.0000
-0.5129 11.0262 5.1402 11.0000 82.0000
-0.4518 11.1923 5.2158 4.0000 72.0000
-0.3857 11.2711 5.2511 4.0000 74.0000
-0.3601 12.8459 5.9801 7.0000 48.0000
-0.2833 12.9423 6.0238 8.0000 62.0000
-0.2068 13.1297 6.1100 4.0000 48.0000
14.5232 29.0900 15.0907 5.0000 23.0000
13.0423 25.7286 13.3910 7.0000 30.0000
13.1862 25.6215 13.3771 15.0000 30.0000
13.3239 25.5031 13.3578 12.0000 43.0000
13.4720 25.4057 13.3498 17.0000 52.0000
13.6259 25.3193 13.3481 16.0000 42.0000
13.7858 25.2440 13.3527 6.0000 40.0000
14.7300 26.5834 14.1073 12.0000 42.0000
14.8831 26.4751 14.0981 11.0000 41.0000
15.0565 26.4030 14.1086 9.0000 42.0000
15.2464 26.3588 14.1347 14.0000 35.0000
15.3711 26.2022 14.1010 8.0000 39.0000
15.4453 25.9623 14.0228 9.0000 41.0000
15.6455 25.9355 14.0598 7.0000 44.0000
15.8854 25.9713 14.1317 10.0000 59.0000
16.0133 25.8232 14.1044 9.0000 41.0000
16.1299 25.6584 14.0682 11.0000 31.0000
16.3339 25.6324 14.1086 6.0000 41.0000
16.4795 25.5142 14.0989 9.0000 41.0000
16.7029 25.5151 14.1557 10.0000 36.0000
16.8666 25.4234 14.1620 8.0000 36.0000
17.8760 26.5889 14.8708 7.0000 36.0000
17.2075 25.2588 14.1868 11.0000 42.0000
17.3792 25.1774 14.2007 6.0000 36.0000
18.1564 25.9609 14.7043 10.0000 46.0000
18.0127 25.4219 14.4617 13.0000 39.0000
17.8878 24.9203 14.2389 5.0000 37.0000
17.9459 24.6802 14.1645 10.0000 35.0000
18.0540 24.5112 14.1309 10.0000 42.0000
18.2095 24.4072 14.1351 11.0000 45.0000
18.3802 24.3232 14.1515 13.0000 40.0000
18.5490 24.2359 14.1666 12.0000 37.0000
18.6940 24.1174 14.1641 13.0000 33.0000
18.8243 23.9801 14.1511 12.0000 47.0000
17.8529 22.4580 13.3187 7.0000 46.0000
17.9699 22.3226 13.3035 15.0000 44.0000
18.0566 22.1507 13.2670 8.0000 48.0000
17.7167 21.4637 12.9210 10.0000 42.0000
17.8912 21.4061 12.9521 6.0000 33.0000
17.9782 21.2440 12.9205 9.0000 50.0000
18.0657 21.0836 12.8903 14.0000 44.0000
18.5991 21.4384 13.1761 9.0000 39.0000
18.4584 21.0144 12.9853 12.0000 49.0000
18.5719 20.8838 12.9748 7.0000 48.0000
18.6263 20.6879 12.9239 14.0000 48.0000
18.7828 20.6061 12.9445 15.0000 26.0000
18.9797 20.5671 12.9928 13.0000 48.0000
20.2782 21.7051 13.7887 9.0000 42.0000
20.1417 21.2956 13.6071 18.0000 45.0000
20.2236 21.1211 13.5747 8.0000 52.0000
20.7855 21.4429 13.8627 5.0000 56.0000
20.9148 21.3130 13.8614 7.0000 49.0000
20.2713 20.4055 13.3527 13.0000 34.0000
21.2610 21.1404 13.9177 9.0000 58.0000
21.4019 21.0210 13.9253 13.0000 36.0000
21.1391 20.5096 13.6726 11.0000 49.0000
14.5373 13.9342 9.3559 6.0000 28.0000
14.4855 13.7150 9.2685 7.0000 55.0000
14.3486 13.4195 9.1285 10.0000 57.0000
14.1154 13.0401 8.9297 8.0000 68.0000
14.0497 12.8205 8.8384 6.0000 48.0000
14.1463 12.7505 8.8498 6.0000 44.0000
14.5489 12.9524 9.0512 6.0000 88.0000
14.6329 12.8670 9.0541 3.0000 101.0000
15.4612 13.4277 9.5140 4.0000 39.0000
15.4882 13.2854 9.4804 5.0000 84.0000
14.3369 12.1464 8.7321 9.0000 59.0000
14.6297 12.2409 8.8641 6.0000 85.0000
14.4974 11.9799 8.7396 3.0000 58.0000
14.7169 12.0100 8.8271 4.0000 65.0000
14.9416 12.0413 8.9170 3.0000 75.0000
14.3718 11.4376 8.5362 6.0000 50.0000
15.9930 12.5677 9.4501 3.0000 57.0000
15.3127 11.8821 9.0062 2.0000 51.0000
14.6267 11.2070 8.5635 10.0000 39.0000
15.2134 11.5089 8.8645 6.0000 101.0000
14.7319 11.0033 8.5454 9.0000 61.0000
16.0401 11.8274 9.2597 5.0000 82.0000
16.4645 11.9850 9.4615 9.0000 40.0000
16.7006 12.0007 9.5544 3.0000 54.0000
16.6947 11.8418 9.5094 6.0000 52.0000
16.8615 11.8052 9.5628 3.0000 47.0000
15.2075 10.5093 8.5908 6.0000 47.0000
15.3460 10.4664 8.6324 4.0000 51.0000
14.9612 10.0702 8.3819 3.0000 35.0000
15.0862 10.0204 8.4172 6.0000 36.0000
15.3690 10.0728 8.5399 9.0000 55.0000
15.4953 10.0202 8.5757 5.0000 83.0000
16.0461 10.2371 8.8447 5.0000 78.0000
16.1017 10.1341 8.8410 9.0000 58.0000
16.2130 10.0658 8.8679 8.0000 48.0000
15.8844 9.7274 8.6560 6.0000 57.0000
16.3158 9.8543 8.8573 7.0000 78.0000
16.5249 9.8427 8.9376 8.0000 34.0000
16.7094 9.8141 9.0045 2.0000 47.0000
17.8153 10.3169 9.5645 4.0000 53.0000
17.8767 10.2065 9.5636 5.0000 36.0000
16.9821 9.5583 9.0549 8.0000 40.0000
17.0293 9.4477 9.0491 10.0000 54.0000
17.0774 9.3379 9.0440 7.0000 42.0000
17.1376 9.2346 9.0457 8.0000 29.0000
17.1723 9.1178 9.0343 10.0000 57.0000
17.1861 8.9904 9.0125 7.0000 40.0000
17.1998 8.8636 8.9910 5.0000 82.0000
17.5395 8.9028 9.1394 10.0000 35.0000
17.3479 8.6721 9.0121 6.0000 30.0000
17.3421 8.5367 8.9818 3.0000 36.0000
27.9484 12.9127 14.2906 3.0000 28.0000
27.9470 12.7046 14.2499 8.0000 51.0000
27.9259 12.4888 14.1998 14.0000 34.0000
27.9771 12.3063 14.1872 7.0000 44.0000
28.0071 12.1149 14.1645 8.0000 36.0000
28.1527 11.9734 14.2007 6.0000 34.0000
29.2277 12.2192 14.7039 6.0000 36.0000
29.3576 12.0624 14.7316 6.0000 40.0000
18.8479 7.6110 9.4438 3.0000 47.0000
20.9168 8.2971 10.4519 2.0000 60.0000
29.7319 11.5812 14.8098 4.0000 52.0000
25.8572 9.8902 12.8529 5.0000 52.0000
20.6905 7.7697 10.2661 3.0000 59.0000
20.8570 7.6865 10.3250 6.0000 54.0000
20.8611 7.5430 10.3040 2.0000 65.0000
20.0749 7.1199 9.8949 2.0000 54.0000
17.6585 6.1417 8.6883 3.0000 73.0000
17.7499 6.0517 8.7148 8.0000 33.0000
17.7807 5.9406 8.7119 7.0000 33.0000
17.8211 5.8328 8.7140 1.0000 69.0000
19.5338 6.2605 9.5300 1.0000 57.0000
29.6141 9.2890 14.4062 4.0000 50.0000
18.1935 5.5861 8.8439 6.0000 44.0000
18.1006 5.4362 8.7825 14.0000 40.0000
18.1362 5.3258 8.7838 15.0000 34.0000
18.2174 5.2285 8.8073 15.0000 29.0000
18.2360 5.1129 8.8010 4.0000 60.0000
22.6876 6.2101 10.9245 5.0000 41.0000
20.0059 5.2135 9.6048 1.0000 73.0000
20.0489 5.0936 9.6103 3.0000 62.0000
26.5247 6.3920 12.6675 4.0000 54.0000
26.5749 6.2318 12.6729 1.0000 64.0000
27.9715 6.3782 13.3187 5.0000 38.0000
27.9357 6.1900 13.2833 3.0000 58.0000
28.0060 6.0255 13.2989 5.0000 52.0000
28.0557 5.8564 13.3052 3.0000 40.0000
26.6557 5.3939 12.6267 3.0000 99.0000
18.4759 3.6221 8.7493 1.0000 49.0000
26.7707 5.0760 12.6506 4.0000 55.0000
30.1393 5.5228 14.2229 4.0000 48.0000
31.0447 5.2957 14.6177 4.0000 53.0000
26.8631 4.4135 12.6393 3.0000 52.0000
26.8699 4.2455 12.6300 3.0000 63.0000
28.0913 4.2618 13.1904 6.0000 47.0000
26.9416 3.9186 12.6401 5.0000 71.0000
17.3572 2.4174 8.1456 2.0000 63.0000
30.0502 3.9943 14.0716 5.0000 48.0000
28.2702 3.5816 13.2291 7.0000 34.0000
29.9934 3.6128 14.0233 7.0000 57.0000
29.9807 3.4248 14.0073 4.0000 62.0000
28.7644 3.1073 13.4309 9.0000 43.0000
28.7125 2.9236 13.3981 10.0000 43.0000
28.7290 2.7473 13.3977 11.0000 53.0000
28.7751 2.5736 13.4116 9.0000 39.0000
29.0825 2.4213 13.5474 6.0000 49.0000
29.2316 2.2532 13.6100 3.0000 37.0000
18.4602 0.5156 8.5824 8.0000 26.0000
18.4340 0.4017 8.5690 11.0000 43.0000
18.4116 0.2882 8.5576 11.0000 70.0000
18.3895 0.1750 8.5467 11.0000 54.0000
18.3711 0.0621 8.5378 11.0000 32.0000
18.3684 -0.0506 8.5366 10.0000 57.0000
18.3642 -0.1633 8.5349 12.0000 37.0000
18.3474 -0.2757 8.5278 8.0000 59.0000
18.0224 -0.3814 8.3781 9.0000 58.0000
17.6751 -0.4824 8.2183 12.0000 56.0000
17.6890 -0.5915 8.2263 11.0000 45.0000
17.8782 -0.7077 8.3159 9.0000 52.0000
7.8888 -0.3584 3.6847 2.0000 75.0000
7.7623 -0.4003 3.6271 5.0000 75.0000
7.7534 -0.4476 3.6242 7.0000 57.0000
7.7514 -0.4952 3.6246 7.0000 96.0000
7.7717 -0.5444 3.6355 7.0000 110.0000
7.9456 -0.6057 3.7179 7.0000 87.0000
7.8721 -0.6487 3.6856 8.0000 58.0000
7.9240 -0.7020 3.7116 8.0000 63.0000
7.9186 -0.7505 3.7112 6.0000 156.0000
7.8786 -0.7955 3.6948 6.0000 188.0000
7.9494 -0.8520 3.7301 4.0000 232.0000
7.5311 -0.8537 3.5376 3.0000 113.0000
8.1546 -0.9754 3.8310 1.0000 137.0000
17.5400 -2.2122 8.2171 7.0000 85.0000
