7.2718 4.7427 6.8194 1.0000 87.0000
7.2524 4.6669 6.7744 8.0000 71.0000
7.2650 4.6122 6.7596 12.0000 51.0000
7.2971 4.5700 6.7633 11.0000 80.0000
7.3264 4.5260 6.7645 11.0000 85.0000
7.3527 4.4801 6.7633 10.0000 45.0000
7.4205 4.4593 6.8003 4.0000 85.0000
8.9394 5.2980 8.1590 1.0000 110.0000
8.9758 5.2454 8.1627 4.0000 68.0000
9.0242 5.1997 8.1775 7.0000 84.0000
5.8503 3.3226 5.2886 1.0000 126.0000
11.6798 6.5407 10.5058 3.0000 133.0000
11.6921 6.4537 10.4811 4.0000 74.0000
7.9660 4.3329 7.1222 2.0000 77.0000
7.9744 4.2743 7.1062 3.0000 79.0000
13.6818 7.2269 12.1408 3.0000 52.0000
8.1778 4.2550 7.2400 1.0000 74.0000
8.2269 4.2166 7.2604 1.0000 45.0000
8.2027 4.1408 7.2166 6.0000 68.0000
8.2089 4.0809 7.2000 9.0000 68.0000
8.2366 4.0319 7.2024 8.0000 67.0000
8.2634 3.9823 7.2043 7.0000 92.0000
5.9153 2.8056 5.1468 3.0000 97.0000
8.3637 3.9049 7.2493 5.0000 71.0000
8.4304 3.8732 7.2863 7.0000 71.0000
8.4475 3.8185 7.2807 8.0000 61.0000
8.3651 3.7196 7.1901 8.0000 50.0000
8.4166 3.6808 7.2148 6.0000 67.0000
8.5793 3.6894 7.3344 5.0000 70.0000
6.4479 2.7257 5.5020 4.0000 58.0000
6.3489 2.6380 5.4039 1.0000 148.0000
6.9275 2.8289 5.8801 5.0000 88.0000
6.8126 2.7332 5.7685 6.0000 111.0000
7.0994 2.7979 5.9960 4.0000 68.0000
8.7651 3.3928 7.3813 8.0000 44.0000
8.7975 3.3434 7.3911 10.0000 63.0000
8.8134 3.2877 7.3874 7.0000 60.0000
8.8489 3.2392 7.4004 5.0000 52.0000
8.8575 3.1809 7.3911 7.0000 67.0000
8.8747 3.1257 7.3893 6.0000 95.0000
8.9019 3.0740 7.3961 6.0000 98.0000
8.9519 3.0299 7.4220 7.0000 78.0000
7.4567 2.4727 6.1724 5.0000 112.0000
7.4373 2.4157 6.1441 3.0000 145.0000
6.4469 2.0502 5.3176 1.0000 102.0000
6.4781 2.0164 5.3330 1.0000 149.0000
9.0255 2.7493 7.4097 1.0000 138.0000
8.9095 2.6543 7.3011 2.0000 131.0000
6.3373 1.8453 5.1887 1.0000 111.0000
6.2516 1.7788 5.1098 3.0000 174.0000
5.7459 1.5967 4.6897 3.0000 103.0000
5.7617 1.5631 4.6947 6.0000 82.0000
5.7377 1.5188 4.6675 6.0000 66.0000
5.7271 1.4785 4.6515 6.0000 65.0000
5.7368 1.4435 4.6521 7.0000 54.0000
5.7586 1.4115 4.6626 7.0000 46.0000
5.7840 1.3801 4.6762 6.0000 66.0000
5.7456 1.3337 4.6385 3.0000 114.0000
5.7437 1.2962 4.6305 4.0000 79.0000
6.9040 1.5139 5.5551 1.0000 133.0000
7.6530 1.6292 6.1478 2.0000 110.0000
7.5202 1.5527 6.0337 4.0000 99.0000
5.7930 1.1587 4.6459 1.0000 92.0000
7.4877 1.4504 5.9930 1.0000 121.0000
7.4555 1.3968 5.9603 2.0000 129.0000
6.4175 1.1614 5.1270 4.0000 140.0000
6.4804 1.1317 5.1714 4.0000 108.0000
10.0150 1.6866 7.9746 6.0000 126.0000
6.6546 1.0782 5.2991 2.0000 78.0000
10.0178 1.5609 7.9610 5.0000 104.0000
10.1027 1.5107 8.0209 3.0000 149.0000
7.0512 1.0098 5.5982 2.0000 107.0000
7.0144 0.9606 5.5643 4.0000 203.0000
7.0038 0.9154 5.5514 4.0000 140.0000
5.7493 0.7153 4.5565 4.0000 137.0000
5.7239 0.6765 4.5331 3.0000 124.0000
5.6998 0.6382 4.5109 5.0000 65.0000
5.7232 0.6053 4.5263 5.0000 80.0000
5.9516 0.5926 4.7033 3.0000 119.0000
6.0656 0.5664 4.7903 5.0000 122.0000
5.7498 0.5013 4.5392 5.0000 95.0000
5.7339 0.4645 4.5244 4.0000 135.0000
5.7602 0.4310 4.5429 2.0000 211.0000
5.7510 0.3949 4.5337 1.0000 177.0000
7.4266 0.4646 5.8474 2.0000 142.0000
6.8808 0.3880 5.4169 1.0000 161.0000
7.9420 0.3992 6.2477 2.0000 154.0000
7.9411 0.3503 6.2452 3.0000 93.0000
6.6594 0.2526 5.2387 3.0000 94.0000
6.7073 0.2132 5.2750 2.0000 127.0000
6.3331 0.1623 4.9808 4.0000 88.0000
6.3088 0.1230 4.9611 6.0000 73.0000
6.3055 0.0842 4.9580 6.0000 101.0000
6.2949 0.0454 4.9494 4.0000 76.0000
6.2494 0.0068 4.9136 2.0000 82.0000
6.2792 -0.0317 4.9371 2.0000 85.0000
6.1821 -0.0692 4.8612 3.0000 97.0000
6.1548 -0.1067 4.8402 6.0000 82.0000
6.1454 -0.1442 4.8334 5.0000 69.0000
6.1231 -0.1813 4.8168 4.0000 101.0000
6.1054 -0.2183 4.8038 3.0000 116.0000
6.0835 -0.2549 4.7878 3.0000 125.0000
6.0810 -0.2922 4.7872 3.0000 87.0000
6.0540 -0.3281 4.7674 2.0000 125.0000
6.0542 -0.3654 4.7693 3.0000 111.0000
6.0699 -0.4038 4.7835 5.0000 93.0000
6.0697 -0.4412 4.7853 3.0000 112.0000
6.8673 -0.5413 5.4144 4.0000 205.0000
6.2999 -0.5356 4.9710 3.0000 116.0000
6.2918 -0.5739 4.9673 4.0000 66.0000
6.3022 -0.6138 4.9784 6.0000 66.0000
6.2905 -0.6517 4.9722 5.0000 98.0000
6.3208 -0.6940 4.9994 3.0000 166.0000
6.8271 -0.7919 5.4021 2.0000 117.0000
10.9273 -1.3346 8.6426 5.0000 79.0000
10.9174 -1.4014 8.6413 4.0000 65.0000
6.8784 -0.9265 5.4551 3.0000 50.0000
6.7541 -0.9520 5.3614 1.0000 60.0000
6.7435 -0.9927 5.3577 1.0000 56.0000
10.9590 -1.6811 8.7042 4.0000 70.0000
10.9610 -1.7503 8.7141 4.0000 116.0000
7.0914 -1.1776 5.6494 3.0000 71.0000
7.0817 -1.2207 5.6476 3.0000 81.0000
7.0617 -1.2619 5.6377 3.0000 85.0000
7.0577 -1.3059 5.6408 6.0000 74.0000
7.0588 -1.3510 5.6482 7.0000 80.0000
7.0365 -1.3915 5.6371 8.0000 67.0000
7.0101 -1.4310 5.6229 8.0000 69.0000
6.9850 -1.4706 5.6099 6.0000 72.0000
7.0189 -1.5228 5.6445 3.0000 71.0000
6.9526 -1.5531 5.5988 1.0000 57.0000
10.6722 -2.4521 8.5969 1.0000 62.0000
10.6179 -2.5083 8.5655 5.0000 51.0000
6.7040 -1.6278 5.4224 2.0000 90.0000
6.7008 -1.6706 5.4280 2.0000 57.0000
6.7118 -1.7171 5.4453 1.0000 48.0000
-0.6674 -5.7519 4.5540 1.0000 55.0000
-0.7033 -5.7524 4.5577 4.0000 87.0000
-0.7402 -5.7605 4.5676 6.0000 79.0000
-0.7733 -5.7394 4.5547 8.0000 76.0000
-0.8071 -5.7244 4.5466 8.0000 71.0000
-0.8429 -5.7240 4.5503 8.0000 57.0000
-0.8810 -5.7382 4.5658 8.0000 86.0000
-0.9312 -5.8268 4.6404 5.0000 60.0000
-0.9700 -5.8396 4.6552 5.0000 108.0000
-1.0138 -5.8801 4.6922 5.0000 82.0000
-1.0691 -5.9814 4.7779 4.0000 65.0000
-0.8762 -4.7324 3.7880 2.0000 76.0000
-0.9056 -4.7293 3.7899 4.0000 79.0000
-0.9188 -4.6433 3.7257 7.0000 69.0000
-0.9399 -4.6014 3.6968 6.0000 82.0000
-0.9703 -4.6063 3.7054 6.0000 83.0000
-1.0321 -4.7549 3.8294 6.0000 75.0000
-1.0669 -4.7738 3.8497 6.0000 77.0000
-1.0992 -4.7802 3.8602 7.0000 123.0000
-1.1296 -4.7780 3.8639 6.0000 89.0000
-1.1520 -4.7426 3.8411 6.0000 83.0000
-1.1773 -4.7202 3.8287 5.0000 82.0000
-1.1912 -4.6542 3.7812 4.0000 70.0000
-1.2249 -4.6666 3.7973 2.0000 70.0000
-1.2570 -4.6719 3.8078 4.0000 230.0000
-1.2758 -4.6284 3.7788 5.0000 164.0000
-1.3057 -4.6258 3.7831 5.0000 141.0000
-1.3373 -4.6291 3.7923 6.0000 133.0000
-1.3885 -4.6978 3.8553 5.0000 203.0000
-1.4432 -4.7751 3.9256 6.0000 95.0000
-1.4374 -4.6525 3.8324 5.0000 163.0000
-1.4505 -4.5948 3.7923 6.0000 88.0000
-1.4722 -4.5656 3.7757 6.0000 74.0000
-1.4599 -4.4339 3.6745 7.0000 92.0000
-1.4733 -4.3838 3.6406 6.0000 104.0000
-1.4917 -4.3501 3.6203 5.0000 109.0000
-1.4867 -4.2502 3.5450 4.0000 153.0000
-1.5149 -4.2469 3.5500 5.0000 117.0000
-1.5395 -4.2339 3.5469 6.0000 113.0000
-1.5696 -4.2354 3.5561 5.0000 138.0000
-1.5997 -4.2367 3.5654 5.0000 142.0000
-1.6771 -4.3606 3.6776 5.0000 96.0000
-1.7296 -4.4162 3.7331 3.0000 114.0000
-2.1931 -5.5009 4.6570 2.0000 150.0000
-1.7834 -4.3939 3.7325 2.0000 108.0000
-1.7959 -4.3479 3.7029 3.0000 114.0000
-1.8460 -4.3927 3.7504 4.0000 126.0000
-1.8825 -4.4038 3.7695 4.0000 157.0000
-1.7985 -4.1365 3.5512 4.0000 221.0000
-1.8248 -4.1276 3.5530 5.0000 198.0000
-2.4514 -5.4555 4.7033 3.0000 114.0000
-2.3969 -5.2478 4.5374 5.0000 162.0000
-2.3791 -5.1251 4.4443 4.0000 130.0000
-2.3910 -5.0691 4.4085 5.0000 78.0000
-2.4034 -5.0153 4.3746 6.0000 178.0000
-2.2096 -4.5390 3.9724 5.0000 289.0000
-2.2301 -4.5105 3.9595 4.0000 333.0000
-2.1712 -4.3244 3.8084 3.0000 111.0000
-2.2049 -4.3250 3.8207 5.0000 221.0000
-2.2531 -4.3533 3.8577 7.0000 140.0000
-2.2816 -4.3429 3.8608 5.0000 96.0000
-2.3193 -4.3497 3.8793 5.0000 148.0000
-2.3272 -4.3007 3.8485 2.0000 169.0000
-3.2183 -5.8626 5.2572 4.0000 144.0000
-3.1811 -5.7113 5.1394 6.0000 165.0000
-3.2103 -5.6814 5.1301 4.0000 155.0000
-2.5850 -4.5094 4.0896 4.0000 104.0000
-2.6803 -4.6098 4.1951 3.0000 166.0000
-3.3815 -5.7353 5.2337 4.0000 166.0000
-3.4073 -5.6989 5.2195 5.0000 83.0000
-3.4451 -5.6826 5.2239 4.0000 119.0000
-3.5054 -5.7029 5.2621 3.0000 189.0000
-2.5807 -4.1406 3.8398 3.0000 123.0000
-2.6187 -4.1446 3.8583 6.0000 136.0000
-2.6424 -4.1258 3.8559 6.0000 122.0000
-2.6458 -4.0759 3.8244 5.0000 127.0000
-2.6898 -4.0885 3.8516 7.0000 118.0000
-2.7131 -4.0693 3.8491 7.0000 90.0000
-2.7358 -4.0493 3.8460 7.0000 109.0000
-2.7579 -4.0285 3.8423 8.0000 97.0000
-2.7794 -4.0070 3.8380 8.0000 97.0000
-2.8071 -3.9944 3.8423 8.0000 97.0000
-2.8330 -3.9790 3.8442 8.0000 163.0000
-2.8573 -3.9616 3.8442 7.0000 119.0000
-2.8783 -3.9395 3.8398 3.0000 202.0000
-2.1900 -2.9585 2.9011 2.0000 195.0000
-2.6957 -3.5958 3.5382 5.0000 102.0000
-2.7272 -3.5918 3.5506 7.0000 91.0000
-2.7439 -3.5681 3.5438 7.0000 82.0000
-2.7425 -3.5214 3.5142 5.0000 60.0000
-2.7446 -3.4797 3.4895 7.0000 81.0000
-2.7477 -3.4401 3.4667 9.0000 87.0000
-2.7609 -3.4134 3.4568 8.0000 75.0000
-2.7748 -3.3878 3.4482 7.0000 72.0000
-2.7614 -3.3295 3.4063 6.0000 126.0000
-2.7701 -3.2986 3.3921 7.0000 100.0000
-2.7317 -3.2126 3.3211 4.0000 184.0000
-2.5496 -2.9613 3.0788 6.0000 113.0000
-2.5445 -2.9189 3.0510 11.0000 66.0000
-2.5550 -2.8949 3.0424 12.0000 94.0000
-2.5712 -2.8774 3.0405 11.0000 101.0000
-2.6347 -2.9124 3.0942 8.0000 95.0000
-2.7763 -3.0315 3.2379 8.0000 55.0000
-2.8109 -3.0317 3.2564 8.0000 67.0000
-2.8699 -3.0575 3.3026 4.0000 111.0000
-3.4772 -3.6597 3.9724 2.0000 170.0000
-4.0009 -4.1598 4.5392 5.0000 142.0000
-4.0264 -4.1352 4.5392 5.0000 107.0000
-4.0544 -4.1132 4.5423 4.0000 161.0000
-3.1747 -3.1809 3.5382 1.0000 234.0000
-4.3054 -4.2620 4.7637 3.0000 140.0000
-4.2954 -4.2003 4.7243 3.0000 221.0000
-3.8711 -3.7390 4.2339 3.0000 217.0000
-3.9151 -3.7352 4.2568 3.0000 280.0000
-3.8875 -3.6636 4.2025 2.0000 265.0000
-3.5568 -3.3108 3.8244 1.0000 263.0000
-4.5317 -4.1673 4.8408 3.0000 144.0000
-4.5438 -4.1272 4.8267 3.0000 157.0000
-3.3905 -3.0413 3.5857 3.0000 76.0000
-3.3614 -2.9782 3.5358 2.0000 111.0000
-4.4556 -3.8997 4.6564 3.0000 90.0000
-3.6501 -3.1550 3.7973 2.0000 170.0000
-4.6743 -3.9910 4.8328 4.0000 236.0000
-4.3221 -3.6445 4.4467 5.0000 173.0000
-4.3262 -3.6028 4.4282 7.0000 174.0000
-4.3470 -3.5752 4.4270 8.0000 203.0000
-4.3157 -3.5052 4.3733 3.0000 222.0000
-4.2230 -3.3870 4.2586 3.0000 84.0000
-4.2375 -3.3562 4.2525 3.0000 70.0000
-4.2673 -3.3374 4.2617 5.0000 52.0000
-4.2665 -3.2948 4.2407 6.0000 75.0000
-4.2992 -3.2781 4.2531 4.0000 93.0000
-4.3393 -3.2668 4.2728 5.0000 161.0000
-4.1913 -3.1152 4.1087 5.0000 170.0000
-4.1113 -3.0167 4.0125 5.0000 177.0000
-4.0801 -2.9554 3.9644 3.0000 101.0000
-4.9617 -3.5482 4.7964 4.0000 209.0000
-5.0399 -3.5577 4.8507 2.0000 230.0000
-4.3888 -3.0576 4.2080 2.0000 127.0000
-4.3161 -2.9677 4.1211 3.0000 87.0000
-4.4514 -3.0208 4.2321 5.0000 120.0000
-4.5287 -3.0328 4.2876 5.0000 174.0000
-4.6339 -3.0623 4.3690 3.0000 225.0000
-4.6506 -3.0325 4.3672 3.0000 236.0000
-4.6917 -3.0184 4.3881 5.0000 243.0000
-4.6616 -2.9588 4.3431 6.0000 78.0000
-4.5522 -2.8503 4.2253 7.0000 138.0000
-4.5683 -2.8215 4.2241 7.0000 82.0000
-4.5983 -2.8012 4.2358 5.0000 69.0000
-4.6714 -2.8066 4.2870 3.0000 81.0000
-4.6906 -2.7791 4.2888 5.0000 115.0000
-4.7143 -2.7542 4.2950 5.0000 75.0000
-4.7155 -2.7162 4.2808 6.0000 116.0000
-4.6691 -2.6514 4.2241 5.0000 160.0000
-3.9353 -2.2026 3.5506 4.0000 322.0000
-3.8888 -2.1453 3.4969 5.0000 168.0000
-3.8404 -2.0880 3.4420 5.0000 139.0000
-3.8524 -2.0640 3.4414 6.0000 88.0000
-3.9290 -2.0741 3.4982 3.0000 66.0000
-3.9961 -2.0783 3.5463 4.0000 76.0000
-4.0782 -2.0893 3.6073 3.0000 115.0000
-4.1120 -2.0749 3.6258 2.0000 151.0000
-3.9928 -1.9841 3.5105 1.0000 172.0000
-3.9894 -1.9519 3.4969 2.0000 117.0000
-4.6295 -2.2303 4.0434 3.0000 96.0000
-4.5322 -2.1492 3.9472 4.0000 356.0000
-3.9847 -1.8595 3.4624 4.0000 185.0000
-4.0161 -1.8442 3.4797 5.0000 235.0000
-4.0417 -1.8261 3.4920 4.0000 67.0000
-4.0693 -1.8086 3.5062 6.0000 106.0000
-4.0811 -1.7839 3.5068 6.0000 109.0000
-4.0905 -1.7582 3.5056 5.0000 188.0000
-4.1142 -1.7386 3.5167 3.0000 300.0000
-4.1495 -1.7236 3.5376 2.0000 88.0000
-4.7903 -1.9556 4.0711 4.0000 77.0000
-4.3245 -1.7344 3.6678 5.0000 286.0000
-4.2853 -1.6882 3.6258 6.0000 191.0000
-4.4666 -1.7281 3.7695 5.0000 149.0000
-4.5087 -1.7127 3.7960 6.0000 142.0000
-4.4948 -1.6759 3.7757 4.0000 174.0000
-4.3883 -1.6055 3.6782 2.0000 350.0000
-4.2491 -1.5251 3.5543 3.0000 208.0000
-4.2495 -1.4958 3.5469 6.0000 122.0000
-4.2616 -1.4708 3.5493 5.0000 205.0000
-4.4122 -1.4926 3.6665 4.0000 94.0000
-4.5714 -1.5153 3.7905 4.0000 89.0000
-4.5612 -1.4809 3.7745 6.0000 112.0000
-4.5634 -1.4507 3.7689 6.0000 69.0000
-4.5820 -1.4257 3.7769 4.0000 103.0000
-4.5884 -1.3969 3.7751 5.0000 111.0000
-4.5969 -1.3687 3.7751 4.0000 83.0000
-4.6264 -1.3467 3.7923 4.0000 88.0000
-4.6663 -1.3273 3.8183 4.0000 86.0000
-5.8900 -1.6368 4.8069 6.0000 75.0000
-5.9000 -1.6006 4.8069 5.0000 155.0000
-4.8695 -1.2888 3.9638 2.0000 128.0000
-4.8286 -1.2463 3.9243 3.0000 186.0000
-4.6842 -1.1784 3.8016 5.0000 144.0000
-4.6983 -1.1513 3.8072 3.0000 68.0000
-4.8913 -1.1669 3.9570 3.0000 263.0000
-5.0640 -1.1753 4.0902 4.0000 144.0000
-5.0396 -1.1371 4.0650 5.0000 176.0000
-4.9212 -1.0787 3.9644 5.0000 150.0000
-4.9308 -1.0491 3.9669 5.0000 226.0000
-4.9117 -1.0136 3.9465 7.0000 213.0000
-4.8985 -0.9796 3.9311 7.0000 173.0000
-4.9260 -0.9537 3.9484 5.0000 256.0000
-4.9295 -0.9230 3.9465 4.0000 296.0000
-5.4408 -0.9844 4.3493 4.0000 264.0000
-5.3305 -0.9306 4.2568 5.0000 163.0000
-4.9317 -0.8298 3.9354 5.0000 114.0000
-4.9499 -0.8016 3.9459 4.0000 164.0000
-4.9438 -0.7695 3.9373 3.0000 223.0000
-4.7935 -0.7160 3.8146 4.0000 153.0000
-4.7955 -0.6862 3.8127 6.0000 90.0000
-4.8386 -0.6621 3.8435 6.0000 128.0000
-4.9503 -0.6465 3.9287 5.0000 139.0000
-5.3002 -0.6593 4.2019 5.0000 148.0000
-5.3119 -0.6277 4.2080 5.0000 106.0000
-5.3775 -0.6020 4.2568 3.0000 66.0000
-5.3842 -0.5694 4.2592 1.0000 42.0000
-5.4456 -0.5421 4.3049 1.0000 45.0000
-8.0516 1.0025 6.1833 1.0000 75.0000
-8.2664 1.0807 6.3527 4.0000 91.0000
-8.1026 1.1100 6.2323 7.0000 117.0000
-8.0988 1.1601 6.2347 8.0000 84.0000
-8.2711 1.2365 6.3726 7.0000 55.0000
-8.3971 1.3080 6.4755 6.0000 98.0000
-8.0918 1.3115 6.2468 4.0000 112.0000
-7.6344 1.2858 5.9007 4.0000 147.0000
-7.5346 1.3166 5.8299 3.0000 105.0000
-7.5052 1.3590 5.8136 2.0000 159.0000
-7.4576 1.3977 5.7834 5.0000 83.0000
-3.3697 0.6556 2.6264 1.0000 86.0000
-7.6148 1.5241 5.9189 3.0000 85.0000
-7.6459 1.5791 5.9503 4.0000 71.0000
-3.4115 0.7291 2.6687 2.0000 99.0000
-3.3806 0.7442 2.6482 2.0000 133.0000
-3.3713 0.7639 2.6445 2.0000 116.0000
-3.3642 0.7840 2.6427 2.0000 100.0000
-3.3709 0.8074 2.6518 3.0000 124.0000
-3.3334 0.8201 2.6264 4.0000 86.0000
-3.2959 0.8324 2.6010 5.0000 134.0000
-3.3092 0.8574 2.6155 6.0000 72.0000
-3.3062 0.8783 2.6173 4.0000 92.0000
-3.3638 0.9156 2.6669 1.0000 80.0000
-7.4345 2.0669 5.8814 4.0000 133.0000
-7.5067 2.1366 5.9485 1.0000 129.0000
-3.2944 0.9623 2.6258 1.0000 169.0000
-7.4738 2.2268 5.9437 3.0000 108.0000
-7.4455 2.2682 5.9322 2.0000 76.0000
-3.3628 1.0497 2.6948 1.0000 118.0000
-3.3874 1.0802 2.7196 3.0000 98.0000
-3.2838 1.0695 2.6421 1.0000 113.0000
-11.4119 3.7823 9.1533 5.0000 66.0000
-11.4752 3.8816 9.2229 4.0000 130.0000
-11.3579 3.9197 9.1479 5.0000 90.0000
-11.3434 3.9928 9.1557 7.0000 97.0000
-11.3194 4.0626 9.1563 6.0000 90.0000
-12.1461 4.4432 9.8454 3.0000 74.0000
-12.1178 4.5174 9.8448 4.0000 101.0000
-12.1055 4.5976 9.8575 4.0000 108.0000
-4.5499 1.7631 3.7257 3.0000 156.0000
-4.5256 1.7858 3.7148 6.0000 117.0000
-4.5116 1.8123 3.7124 8.0000 134.0000
-4.5240 1.8496 3.7317 10.0000 61.0000
-4.5008 1.8724 3.7221 4.0000 133.0000
-4.5802 1.9384 3.7971 3.0000 211.0000
-4.5777 1.9705 3.8050 6.0000 93.0000
-3.1821 1.3945 2.6578 3.0000 92.0000
-3.1727 1.4137 2.6572 3.0000 92.0000
-3.1568 1.4298 2.6512 3.0000 97.0000
-3.1465 1.4485 2.6500 2.0000 112.0000
-4.3102 2.0145 3.6331 1.0000 165.0000
-4.2503 2.0184 3.5932 2.0000 148.0000
-3.1437 1.5179 2.6705 1.0000 154.0000
-9.2768 4.5397 7.8658 2.0000 142.0000
-4.1810 2.0807 3.5666 1.0000 207.0000
-5.8568 2.9575 5.0035 2.0000 89.0000
-3.9907 2.0477 3.4262 2.0000 116.0000
-3.9053 2.0343 3.3639 2.0000 133.0000
-3.9963 2.1129 3.4528 3.0000 146.0000
-3.9896 2.1407 3.4583 3.0000 147.0000
-3.8735 2.1093 3.3693 4.0000 99.0000
-3.8988 2.1542 3.4026 1.0000 145.0000
-3.8397 2.1524 3.3627 1.0000 144.0000
-3.8042 2.1634 3.3433 1.0000 143.0000
-3.7688 2.1739 3.3240 1.0000 134.0000
-8.1723 4.7748 7.2100 2.0000 155.0000
-11.9066 7.0525 10.5333 3.0000 107.0000
-11.8823 7.1369 10.5503 4.0000 112.0000
-11.8648 7.2258 10.5739 5.0000 104.0000
-12.1062 7.4749 10.8292 2.0000 131.0000
-12.3719 7.7441 11.1087 6.0000 87.0000
-12.5051 7.9345 11.2715 5.0000 68.0000
-12.6115 8.1110 11.4118 5.0000 98.0000
-4.0427 2.6390 3.6864 1.0000 77.0000
-4.0258 2.6633 3.6858 4.0000 87.0000
-3.9915 2.6760 3.6694 5.0000 121.0000
-3.9097 2.6562 3.6095 2.0000 149.0000
-3.7706 2.5958 3.4964 2.0000 180.0000
-3.7625 2.6244 3.5037 3.0000 255.0000
-4.2148 2.9778 3.9393 7.0000 249.0000
-4.3079 3.0832 4.0433 7.0000 150.0000
-2.8744 2.0859 2.7165 5.0000 210.0000
-4.2588 3.1278 4.0330 3.0000 183.0000
-2.9675 2.2093 2.8291 3.0000 90.0000
-3.0366 2.2897 2.9077 6.0000 92.0000
-3.1181 2.3811 2.9991 5.0000 117.0000
-3.1053 2.4017 3.0009 4.0000 150.0000
-3.0058 2.3545 2.9192 3.0000 279.0000
-3.9654 3.1436 3.8630 4.0000 94.0000
-3.1519 2.5316 3.0898 5.0000 172.0000
-3.2062 2.6076 3.1582 4.0000 304.0000
-3.0308 2.4963 3.0015 3.0000 131.0000
-2.9622 2.4705 2.9489 4.0000 142.0000
-3.0225 2.5523 3.0239 4.0000 99.0000
-3.8530 3.2926 3.8691 2.0000 174.0000
-2.9897 2.5881 3.0227 3.0000 117.0000
-4.7060 4.1211 4.7712 3.0000 182.0000
-2.9941 2.6568 3.0596 4.0000 239.0000
-2.9220 2.6252 3.0027 5.0000 176.0000
-2.9748 2.7057 3.0735 4.0000 151.0000
-4.6041 4.2359 4.7718 4.0000 148.0000
-4.4917 4.1838 4.6822 5.0000 130.0000
-3.8880 3.6671 4.0790 4.0000 121.0000
-3.8689 3.6942 4.0827 7.0000 81.0000
-3.8536 3.7251 4.0905 6.0000 157.0000
-4.4372 4.3412 4.7349 3.0000 109.0000
-4.4439 4.4014 4.7706 1.0000 137.0000
-4.8287 4.8409 5.2134 2.0000 136.0000
-3.1095 3.1582 3.3857 3.0000 186.0000
-3.0723 3.1590 3.3663 6.0000 95.0000
-3.0700 3.1955 3.3851 3.0000 168.0000
-3.7685 3.9696 4.1770 1.0000 219.0000
-3.8635 4.1197 4.3095 3.0000 157.0000
-3.7336 4.0307 4.1928 1.0000 172.0000
-3.6313 3.9690 4.1056 2.0000 129.0000
-3.7031 4.0975 4.2146 1.0000 191.0000
-3.7458 4.1961 4.2920 1.0000 198.0000
-4.1485 4.7042 4.7839 2.0000 119.0000
-4.7231 5.4214 5.4815 3.0000 133.0000
-3.5692 4.1497 4.1770 1.0000 160.0000
-4.0865 4.8095 4.8135 4.0000 137.0000
-4.0590 4.8369 4.8159 8.0000 111.0000
-4.0262 4.8580 4.8123 10.0000 90.0000
-4.0023 4.8900 4.8196 10.0000 92.0000
-3.9763 4.9194 4.8244 9.0000 90.0000
-3.9569 4.9574 4.8377 7.0000 106.0000
-3.8998 4.9479 4.8050 5.0000 106.0000
-3.7827 4.8605 4.6980 8.0000 103.0000
-3.7305 4.8546 4.6701 8.0000 77.0000
-3.6785 4.8483 4.6423 9.0000 86.0000
-3.6587 4.8841 4.6550 11.0000 99.0000
-3.6448 4.9282 4.6756 9.0000 97.0000
-3.6366 4.9807 4.7040 4.0000 90.0000
-3.6460 5.0585 4.7560 1.0000 126.0000
-3.9254 5.5165 5.1626 1.0000 113.0000
-4.4142 6.2835 5.8529 4.0000 108.0000
-4.4019 6.3484 5.8880 6.0000 89.0000
-3.5730 5.2226 4.8262 3.0000 107.0000
-3.5440 5.2490 4.8305 10.0000 112.0000
-3.5303 5.2985 4.8559 7.0000 69.0000
-3.4776 5.2895 4.8280 8.0000 83.0000
-3.4064 5.2513 4.7742 9.0000 58.0000
-3.3647 5.2574 4.7609 10.0000 96.0000
-3.3643 5.3284 4.8063 9.0000 71.0000
-3.3543 5.3854 4.8389 6.0000 98.0000
-3.3283 5.4174 4.8492 5.0000 213.0000
-2.9298 4.8360 4.3144 9.0000 110.0000
-2.8923 4.8409 4.3029 6.0000 96.0000
-2.1587 3.6662 3.2508 2.0000 147.0000
-2.1317 3.6718 3.2441 3.0000 68.0000
-2.6089 4.5556 4.0070 6.0000 88.0000
-2.5856 4.5799 4.0143 7.0000 111.0000
-2.7416 4.9260 4.3017 4.0000 84.0000
-2.6983 4.9190 4.2811 9.0000 81.0000
-2.6556 4.9123 4.2611 9.0000 71.0000
-2.6123 4.9040 4.2400 6.0000 99.0000
-2.5847 4.9248 4.2442 10.0000 77.0000
-2.5556 4.9427 4.2460 10.0000 89.0000
-2.5263 4.9604 4.2478 5.0000 114.0000
-1.7889 3.5694 3.0517 5.0000 142.0000
-1.7002 3.4454 2.9374 5.0000 206.0000
-1.6982 3.4952 2.9706 5.0000 116.0000
-1.6612 3.4732 2.9434 6.0000 190.0000
-1.7636 3.7454 3.1636 3.0000 111.0000
-2.9910 6.4465 5.4179 8.0000 93.0000
-2.9686 6.5024 5.4494 3.0000 142.0000
-1.6108 3.5914 3.0088 2.0000 144.0000
-2.8438 6.4371 5.3653 4.0000 138.0000
-2.6968 6.2077 5.1608 3.0000 163.0000
-2.5863 6.0550 5.0210 7.0000 100.0000
-2.5408 6.0510 5.0047 7.0000 86.0000
-2.4945 6.0444 4.9866 7.0000 87.0000
-2.4636 6.0750 4.9993 6.0000 169.0000
-1.3913 3.4975 2.8781 6.0000 125.0000
-1.3791 3.5297 2.8974 4.0000 116.0000
-1.3961 3.6384 2.9791 3.0000 156.0000
-2.2206 5.8871 4.7990 4.0000 103.0000
-2.1845 5.9007 4.7990 1.0000 123.0000
-3.7330 10.2668 8.3190 3.0000 58.0000
-2.1288 5.9743 4.8371 2.0000 56.0000
-3.6638 10.4749 8.4503 1.0000 39.0000
-1.2170 3.5585 2.8757 1.0000 75.0000
-1.2060 3.5984 2.9017 1.0000 88.0000
-2.6090 7.9280 6.3599 1.0000 49.0000
-2.5620 7.9492 6.3642 1.0000 52.0000
-2.5072 7.9458 6.3490 4.0000 45.0000
-2.4711 8.0021 6.3817 1.0000 57.0000
-2.4437 8.0887 6.4386 5.0000 101.0000
-2.3888 8.0860 6.4247 6.0000 95.0000
-2.3170 8.0240 6.3642 3.0000 85.0000
-2.2991 8.1492 6.4519 2.0000 54.0000
-2.1810 7.9168 6.2577 3.0000 77.0000
-2.5077 9.3223 7.3534 4.0000 73.0000
-2.4454 9.3182 7.3382 3.0000 72.0000
-2.3838 9.3161 7.3249 2.0000 62.0000
-2.1749 8.7234 6.8494 1.0000 58.0000
-2.1258 8.7551 6.8639 2.0000 60.0000
-2.1822 9.2329 7.2269 2.0000 75.0000
-1.5881 6.9138 5.4082 1.0000 60.0000
-2.1825 9.7671 7.6226 1.0000 58.0000
-1.8873 8.6988 6.7816 1.0000 44.0000
-1.6476 8.3322 6.4719 1.0000 68.0000
-1.6243 8.4876 6.5844 1.0000 43.0000
-1.6008 8.6517 6.7036 4.0000 56.0000
-1.5514 8.6817 6.7193 6.0000 56.0000
-1.4829 8.6032 6.6516 1.0000 51.0000
-1.4171 8.5344 6.5917 1.0000 50.0000
-1.4543 9.1019 7.0218 1.0000 64.0000
-1.3618 8.8730 6.8391 4.0000 73.0000
-1.3028 8.8504 6.8155 4.0000 70.0000
-1.2487 8.8598 6.8167 2.0000 73.0000
-1.1806 8.7655 6.7387 3.0000 52.0000
-1.1339 8.8279 6.7810 2.0000 53.0000
-1.0675 8.7351 6.7048 6.0000 70.0000
-1.0128 8.7320 6.6975 6.0000 71.0000
-0.9613 8.7571 6.7121 7.0000 74.0000
-0.9177 8.8610 6.7871 4.0000 62.0000
-0.8780 9.0162 6.9014 1.0000 39.0000
-0.8198 8.9897 6.8772 1.0000 61.0000
-0.7612 8.9549 6.8470 4.0000 59.0000
-0.7069 8.9674 6.8530 3.0000 45.0000
-0.6533 8.9914 6.8682 5.0000 61.0000
-0.5967 8.9738 6.8518 7.0000 53.0000
-0.5416 8.9781 6.8524 4.0000 83.0000
-0.5131 9.4662 7.2215 3.0000 90.0000
-0.4575 9.5208 7.2608 3.0000 68.0000
-0.3988 9.5179 7.2566 5.0000 61.0000
-0.3379 9.4509 7.2039 1.0000 59.0000
0.4582 12.1204 9.2344 1.0000 47.0000
0.5308 12.0760 9.2029 3.0000 61.0000
0.6338 11.2609 8.5882 3.0000 48.0000
0.7039 11.2743 8.6015 8.0000 62.0000
0.7738 11.2793 8.6088 6.0000 81.0000
0.6877 9.1868 7.0182 4.0000 89.0000
0.6637 8.1840 6.2571 4.0000 81.0000
0.6979 7.9958 6.1167 5.0000 96.0000
0.7303 7.8114 5.9794 5.0000 103.0000
0.7768 7.7925 5.9685 4.0000 107.0000
0.8281 7.8208 5.9939 3.0000 139.0000
0.8886 7.9280 6.0798 3.0000 120.0000
0.9089 7.6820 5.8959 4.0000 97.0000
0.9536 7.6565 5.8808 4.0000 105.0000
0.9896 7.5668 5.8166 3.0000 79.0000
1.0368 7.5661 5.8209 2.0000 115.0000
1.0824 7.5541 5.8166 2.0000 118.0000
1.1248 7.5205 5.7961 2.0000 126.0000
1.1639 7.4687 5.7616 4.0000 100.0000
1.1890 7.3333 5.6630 3.0000 119.0000
1.2314 7.3101 5.6509 5.0000 75.0000
1.2653 7.2397 5.6025 6.0000 56.0000
1.3173 7.2741 5.6351 5.0000 82.0000
1.3896 7.4138 5.7495 4.0000 69.0000
1.4148 7.3004 5.6684 7.0000 49.0000
1.4642 7.3150 5.6866 7.0000 73.0000
1.5330 7.4220 5.7767 6.0000 93.0000
1.6055 7.5395 5.8753 7.0000 49.0000
1.6335 7.4462 5.8106 5.0000 157.0000
1.7916 7.9355 6.1996 6.0000 93.0000
1.8392 7.9197 6.1960 6.0000 76.0000
1.8907 7.9207 6.2057 7.0000 72.0000
1.9160 7.8138 6.1312 5.0000 79.0000
2.0723 8.2336 6.4694 3.0000 94.0000
2.1039 8.1475 6.4120 4.0000 89.0000
2.1514 8.1252 6.4047 5.0000 79.0000
2.2749 8.3839 6.6189 2.0000 80.0000
2.3282 8.3767 6.6243 5.0000 65.0000
2.3918 8.4051 6.6582 6.0000 86.0000
2.4969 8.5745 6.8040 6.0000 122.0000
2.5515 8.5659 6.8095 7.0000 72.0000
2.5574 8.3970 6.6879 4.0000 81.0000
2.5943 8.3340 6.6503 4.0000 57.0000
2.6367 8.2906 6.6286 6.0000 68.0000
2.6929 8.2909 6.6419 3.0000 79.0000
2.7467 8.2833 6.6491 6.0000 61.0000
2.8090 8.3003 6.6764 5.0000 90.0000
2.9255 8.4733 6.8294 6.0000 65.0000
2.9840 8.4740 6.8446 7.0000 70.0000
3.4532 9.6195 7.7841 4.0000 65.0000
3.1351 8.5661 6.9492 4.0000 70.0000
3.4501 9.2518 7.5210 5.0000 66.0000
3.1832 8.3774 6.8276 4.0000 117.0000
3.2420 8.3770 6.8433 4.0000 78.0000
3.3190 8.4221 6.8966 5.0000 142.0000
3.3756 8.4142 6.9069 7.0000 54.0000
3.4266 8.3918 6.9057 5.0000 84.0000
3.8018 9.1509 7.5476 5.0000 93.0000
3.8594 9.1311 7.5506 6.0000 127.0000
3.9157 9.1080 7.5512 6.0000 77.0000
4.0320 9.2224 7.6662 4.0000 91.0000
4.0911 9.2033 7.6710 5.0000 114.0000
3.7446 8.2854 6.9268 4.0000 97.0000
4.0859 8.8955 7.4562 4.0000 70.0000
4.1101 8.8053 7.4018 4.0000 69.0000
4.1477 8.7454 7.3727 5.0000 93.0000
3.7669 7.8172 6.6116 3.0000 79.0000
3.8316 7.8283 6.6407 4.0000 159.0000
3.6955 7.4338 6.3261 4.0000 56.0000
3.8414 7.6101 6.4955 5.0000 54.0000
3.9718 7.7501 6.6352 6.0000 171.0000
4.3049 8.2752 7.1059 8.0000 162.0000
4.3507 8.2395 7.0981 8.0000 131.0000
4.2325 7.8975 6.8264 7.0000 97.0000
4.3474 7.9938 6.9323 7.0000 77.0000
4.3802 7.9377 6.9069 6.0000 132.0000
4.4218 7.8981 6.8960 7.0000 131.0000
4.2070 7.4069 6.4906 7.0000 111.0000
4.2714 7.4140 6.5197 4.0000 68.0000
4.7326 8.1001 7.1465 5.0000 101.0000
4.5827 7.7338 6.8488 2.0000 143.0000
4.6969 7.8168 6.9474 3.0000 102.0000
4.6901 7.6981 6.8675 5.0000 139.0000
4.7761 7.7322 6.9238 4.0000 172.0000
4.7445 7.5765 6.8107 8.0000 88.0000
4.7786 7.5277 6.7931 5.0000 151.0000
4.9405 7.6784 6.9559 7.0000 86.0000
4.9997 7.6667 6.9728 7.0000 122.0000
5.1150 7.7395 7.0672 6.0000 70.0000
5.2005 7.7649 7.1192 7.0000 72.0000
5.2793 7.7790 7.1616 7.0000 59.0000
5.2981 7.7044 7.1229 5.0000 53.0000
5.3344 7.6561 7.1083 2.0000 61.0000
8.0146 11.3576 10.5805 5.0000 64.0000
8.0804 11.3030 10.5757 11.0000 73.0000
8.1706 11.2822 10.6029 8.0000 91.0000
8.2482 11.2434 10.6138 5.0000 77.0000
8.5833 11.5512 10.9532 4.0000 67.0000
4.6228 6.1386 5.8572 2.0000 77.0000
8.5145 11.1695 10.6900 4.0000 54.0000
8.5698 11.1001 10.6737 1.0000 74.0000
8.6112 11.0134 10.6410 1.0000 54.0000
6.6969 8.4559 8.2143 1.0000 56.0000
7.9317 9.8910 9.6518 2.0000 61.0000
8.0003 9.8520 9.6615 9.0000 62.0000
7.6597 9.3149 9.1817 1.0000 68.0000
7.7116 9.2616 9.1757 4.0000 55.0000
7.7463 9.1879 9.1497 7.0000 47.0000
7.7792 9.1130 9.1224 8.0000 64.0000
7.8236 9.0518 9.1091 8.0000 54.0000
7.9612 9.0977 9.2041 11.0000 52.0000
8.0005 9.0302 9.1854 10.0000 49.0000
8.0074 8.9270 9.1303 2.0000 52.0000
5.8898 6.4838 6.6739 1.0000 53.0000
5.9542 6.4745 6.7018 6.0000 53.0000
6.0703 6.5200 6.7871 4.0000 54.0000
6.1096 6.4821 6.7865 4.0000 66.0000
6.1504 6.4456 6.7877 6.0000 64.0000
6.1732 6.3906 6.7695 9.0000 39.0000
6.2107 6.3509 6.7677 8.0000 56.0000
6.2137 6.2764 6.7290 3.0000 55.0000
6.2335 6.2196 6.7090 3.0000 74.0000
6.2438 6.1538 6.6794 4.0000 66.0000
6.3230 6.1560 6.7236 6.0000 58.0000
6.3676 6.1237 6.7308 6.0000 43.0000
6.4304 6.1087 6.7574 2.0000 48.0000
6.4486 6.0511 6.7375 5.0000 56.0000
6.4331 5.9627 6.6830 7.0000 52.0000
6.5036 5.9543 6.7181 9.0000 71.0000
6.5601 5.9324 6.7387 10.0000 95.0000
6.5922 5.8884 6.7344 8.0000 51.0000
6.6145 5.8357 6.7205 4.0000 63.0000
6.7060 5.8437 6.7768 2.0000 61.0000
10.3495 8.9108 10.3954 1.0000 74.0000
6.9148 5.8781 6.9141 1.0000 72.0000
8.7239 7.3257 8.6741 3.0000 102.0000
8.0923 6.7106 8.0062 4.0000 76.0000
8.1407 6.6669 8.0134 4.0000 80.0000
8.1833 6.6183 8.0153 2.0000 85.0000
8.2344 6.5765 8.0255 6.0000 89.0000
8.2927 6.5401 8.0431 8.0000 80.0000
8.3452 6.4989 8.0552 6.0000 97.0000
6.3671 4.8945 6.1204 3.0000 143.0000
6.4078 4.8636 6.1306 1.0000 131.0000
8.5526 6.4111 8.1399 4.0000 113.0000
8.6026 6.3665 8.1502 5.0000 56.0000
8.6171 6.2958 8.1272 5.0000 73.0000
8.6304 6.2246 8.1036 9.0000 67.0000
8.6782 6.1785 8.1127 8.0000 64.0000
8.6879 6.1054 8.0867 6.0000 100.0000
7.2811 5.0494 6.7508 5.0000 50.0000
7.3067 5.0010 6.7459 9.0000 67.0000
7.3207 4.9449 6.7308 10.0000 75.0000
7.3284 4.8849 6.7102 5.0000 96.0000
7.3376 4.8263 6.6915 2.0000 122.0000
7.2963 4.7352 6.6274 7.0000 67.0000
7.3072 4.6787 6.6110 9.0000 73.0000
7.3229 4.6257 6.5995 10.0000 70.0000
7.3546 4.5828 6.6025 11.0000 62.0000
7.3920 4.5434 6.6110 10.0000 53.0000
7.4354 4.5075 6.6249 6.0000 74.0000
8.9858 5.3733 7.9735 1.0000 124.0000
8.3864 4.9449 7.4157 2.0000 100.0000
9.6504 5.6115 8.5005 3.0000 130.0000
8.2924 4.7532 7.2808 3.0000 100.0000
9.0699 5.1257 7.9342 3.0000 130.0000
5.9301 3.3016 5.1753 1.0000 156.0000
9.3072 5.1102 8.0860 5.0000 70.0000
9.3167 5.0413 8.0673 4.0000 96.0000
8.0662 4.3002 6.9637 4.0000 101.0000
8.0784 4.2432 6.9516 7.0000 64.0000
8.1064 4.1946 6.9535 9.0000 62.0000
8.1639 4.1611 6.9807 9.0000 74.0000
8.2113 4.1220 6.9994 11.0000 59.0000
8.2514 4.0790 7.0121 12.0000 66.0000
8.3422 4.0603 7.0678 7.0000 52.0000
8.4825 4.0645 7.1652 6.0000 65.0000
8.4014 3.9624 7.0763 3.0000 52.0000
8.2797 3.8430 6.9541 3.0000 92.0000
7.9404 3.6262 6.6510 1.0000 142.0000
8.1041 3.6412 6.7689 3.0000 128.0000
7.7440 3.4222 6.4513 3.0000 62.0000
7.8948 3.4312 6.5590 1.0000 84.0000
8.0607 3.4447 6.6788 3.0000 105.0000
8.4215 3.5381 6.9589 1.0000 61.0000
8.7013 3.5932 7.1713 2.0000 46.0000
7.2265 2.9315 5.9437 1.0000 70.0000
7.2532 2.8907 5.9509 6.0000 55.0000
7.2545 2.8397 5.9376 1.0000 55.0000
7.2637 2.6902 5.9038 1.0000 38.0000
10.5302 3.8289 8.5319 1.0000 47.0000
7.2370 2.5797 5.8560 1.0000 91.0000
7.1760 2.5084 5.7942 3.0000 124.0000
7.3984 2.5354 5.9606 2.0000 89.0000
7.4840 2.5136 6.0169 3.0000 120.0000
7.5302 2.4779 6.0417 6.0000 104.0000
8.9213 2.8759 7.1404 4.0000 106.0000
8.9023 2.8096 7.1114 3.0000 149.0000
8.8015 2.7185 7.0176 2.0000 133.0000
8.8249 2.6665 7.0230 4.0000 127.0000
8.7998 2.6001 6.9904 4.0000 134.0000
6.5601 1.8934 5.2062 2.0000 123.0000
6.5624 1.8505 5.1989 2.0000 209.0000
6.5836 1.8130 5.2068 2.0000 246.0000
5.8773 1.5792 4.6423 4.0000 92.0000
5.8477 1.5328 4.6114 5.0000 62.0000
5.8469 1.4943 4.6036 3.0000 80.0000
7.2186 1.7989 5.6708 6.0000 96.0000
7.2396 1.7570 5.6787 7.0000 103.0000
7.2494 1.7124 5.6781 7.0000 105.0000
7.1783 1.6491 5.6146 4.0000 119.0000
5.9731 1.3329 4.6683 5.0000 94.0000
5.9859 1.2972 4.6719 7.0000 77.0000
6.0522 1.2728 4.7173 2.0000 77.0000
6.0442 1.2325 4.7052 3.0000 70.0000
6.0376 1.1926 4.6943 8.0000 74.0000
6.1027 1.1666 4.7391 4.0000 61.0000
6.9114 1.2779 5.3586 5.0000 110.0000
6.9207 1.2357 5.3598 5.0000 83.0000
6.8787 1.1847 5.3217 3.0000 80.0000
6.8843 1.1422 5.3205 4.0000 79.0000
5.9587 0.9505 4.6030 3.0000 84.0000
6.0148 0.9217 4.6417 5.0000 84.0000
8.3881 1.2345 6.4604 3.0000 217.0000
6.7683 0.9528 5.2116 4.0000 153.0000
6.1499 0.8269 4.7330 5.0000 103.0000
6.0411 0.7745 4.6459 5.0000 98.0000
5.8537 0.7138 4.4989 3.0000 129.0000
5.8208 0.6736 4.4705 1.0000 162.0000
5.7782 0.6327 4.4348 2.0000 113.0000
9.9958 1.0359 7.6541 2.0000 157.0000
5.7807 0.5613 4.4311 3.0000 91.0000
5.7714 0.5246 4.4215 6.0000 108.0000
5.7467 0.4868 4.4003 3.0000 138.0000
7.9292 0.6245 6.0617 2.0000 210.0000
6.7910 0.4923 5.1917 2.0000 200.0000
6.7152 0.4453 5.1318 6.0000 71.0000
6.6423 0.3995 5.0743 9.0000 96.0000
6.5238 0.3522 4.9823 8.0000 104.0000
6.5123 0.3115 4.9720 7.0000 67.0000
6.6374 0.2767 5.0658 4.0000 101.0000
8.6600 0.3092 6.6025 6.0000 79.0000
8.6697 0.2563 6.6086 8.0000 102.0000
8.7276 0.2045 6.6516 4.0000 80.0000
11.0135 0.1916 8.3880 2.0000 93.0000
10.1299 0.1137 7.7158 2.0000 61.0000
10.1249 0.0515 7.7115 4.0000 86.0000
11.0438 -0.0111 8.4097 1.0000 69.0000
11.3119 -0.0807 8.6136 3.0000 119.0000
9.1703 -0.1226 6.9867 2.0000 103.0000
10.8674 -0.2111 8.2772 3.0000 88.0000
9.1228 -0.2339 6.9522 5.0000 69.0000
6.5045 -0.2081 4.9630 5.0000 75.0000
6.4983 -0.2478 4.9593 8.0000 64.0000
6.5046 -0.2880 4.9654 7.0000 91.0000
6.4884 -0.3272 4.9545 6.0000 67.0000
6.4696 -0.3661 4.9418 1.0000 106.0000
10.1728 -0.6356 7.7630 4.0000 68.0000
10.2458 -0.7033 7.8217 7.0000 66.0000
10.2707 -0.7683 7.8440 5.0000 77.0000
10.2904 -0.8333 7.8628 5.0000 97.0000
11.5907 -1.0096 8.8587 4.0000 81.0000
11.1808 -1.0433 8.5507 4.0000 83.0000
11.0442 -1.0990 8.4515 4.0000 63.0000
11.1727 -1.1810 8.5549 3.0000 54.0000
11.1992 -1.2533 8.5810 5.0000 38.0000
11.1597 -1.3183 8.5568 5.0000 58.0000
11.1435 -1.3857 8.5507 4.0000 65.0000
11.2311 -1.4666 8.6245 1.0000 44.0000
11.2038 -1.5330 8.6106 2.0000 63.0000
11.1745 -1.5989 8.5955 6.0000 54.0000
11.1424 -1.6642 8.5785 3.0000 53.0000
11.1508 -1.7355 8.5931 5.0000 54.0000
11.1486 -1.8052 8.5997 3.0000 49.0000
7.0973 -1.1957 5.4869 2.0000 54.0000
7.0498 -1.2322 5.4560 4.0000 62.0000
7.0492 -1.2767 5.4615 6.0000 68.0000
7.0318 -1.3182 5.4542 6.0000 87.0000
7.0119 -1.3591 5.4452 5.0000 81.0000
7.0854 -1.4184 5.5087 3.0000 59.0000
7.0836 -1.4633 5.5141 5.0000 71.0000
7.0667 -1.5051 5.5081 2.0000 71.0000
10.6244 -2.3287 8.2827 6.0000 63.0000
10.6558 -2.4042 8.3184 8.0000 50.0000
10.6602 -2.4740 8.3335 7.0000 31.0000
10.6479 -2.5401 8.3359 4.0000 56.0000
10.6785 -2.6167 8.3722 1.0000 31.0000
-0.6496 -5.7843 4.4408 1.0000 36.0000
-0.6924 -5.8427 4.4886 2.0000 56.0000
-0.7353 -5.8952 4.5322 5.0000 73.0000
-0.7663 -5.8511 4.5019 7.0000 81.0000
-0.7962 -5.8021 4.4681 9.0000 79.0000
-0.8285 -5.7743 4.4505 9.0000 89.0000
-0.8627 -5.7612 4.4445 7.0000 67.0000
-0.8964 -5.7448 4.4360 7.0000 83.0000
-0.9277 -5.7148 4.4172 8.0000 84.0000
-0.9580 -5.6808 4.3955 8.0000 99.0000
-0.9928 -5.6748 4.3955 7.0000 106.0000
-1.0258 -5.6584 4.3876 5.0000 124.0000
-1.1153 -5.9455 4.6145 4.0000 115.0000
-0.8994 -4.6322 3.6035 3.0000 96.0000
-0.9221 -4.5977 3.5811 8.0000 80.0000
-0.9523 -4.6021 3.5890 9.0000 79.0000
-0.9822 -4.6040 3.5950 9.0000 73.0000
-1.0125 -4.6072 3.6023 9.0000 70.0000
-1.0425 -4.6086 3.6083 9.0000 106.0000
-1.0742 -4.6169 3.6198 9.0000 112.0000
-1.1097 -4.6404 3.6434 7.0000 103.0000
-1.1374 -4.6304 3.6410 5.0000 118.0000
-1.1846 -4.6983 3.6997 7.0000 81.0000
-1.2056 -4.6609 3.6761 7.0000 104.0000
-1.2541 -4.7288 3.7354 7.0000 97.0000
-1.2644 -4.6519 3.6809 5.0000 134.0000
-1.3033 -4.6816 3.7106 6.0000 92.0000
-1.3338 -4.6796 3.7154 6.0000 84.0000
-1.3751 -4.7150 3.7499 7.0000 62.0000
-1.4034 -4.7041 3.7481 7.0000 81.0000
-1.4303 -4.6893 3.7432 6.0000 112.0000
-1.4565 -4.6721 3.7366 6.0000 138.0000
-1.4777 -4.6396 3.7178 7.0000 98.0000
-1.5054 -4.6281 3.7160 8.0000 76.0000
-1.5387 -4.6339 3.7281 6.0000 86.0000
-1.5842 -4.6749 3.7687 3.0000 102.0000
-1.6069 -4.6478 3.7547 4.0000 228.0000
-1.5641 -4.4351 3.5914 4.0000 90.0000
-1.5152 -4.2133 3.4202 5.0000 172.0000
-1.5733 -4.2921 3.4916 8.0000 132.0000
-1.6091 -4.3078 3.5121 8.0000 151.0000
-1.6809 -4.4177 3.6095 4.0000 236.0000
-1.7887 -4.6160 3.7795 5.0000 183.0000
-1.8044 -4.5731 3.7535 5.0000 121.0000
-1.8757 -4.6698 3.8419 5.0000 83.0000
-1.9166 -4.6884 3.8667 4.0000 60.0000
-1.9752 -4.7487 3.9260 3.0000 79.0000
-1.9458 -4.5978 3.8116 3.0000 165.0000
-1.9300 -4.4834 3.7269 3.0000 148.0000
-1.8810 -4.2963 3.5817 5.0000 126.0000
-1.9028 -4.2745 3.5732 5.0000 116.0000
-1.8815 -4.1575 3.4855 3.0000 190.0000
-2.5365 -5.5180 4.6326 3.0000 178.0000
-2.1585 -4.6191 3.8921 4.0000 159.0000
-2.1888 -4.6100 3.8957 4.0000 203.0000
-1.9530 -4.0477 3.4329 3.0000 364.0000
-1.9487 -3.9762 3.3827 3.0000 229.0000
-2.3544 -4.7323 4.0343 2.0000 192.0000
-3.0869 -6.1134 5.2219 2.0000 174.0000
-2.9702 -5.7931 4.9648 3.0000 174.0000
-2.5442 -4.8867 4.2043 3.0000 131.0000
-2.5697 -4.8625 4.1970 6.0000 120.0000
-2.6021 -4.8516 4.2012 6.0000 142.0000
-2.6482 -4.8656 4.2273 6.0000 102.0000
-2.6703 -4.8353 4.2152 5.0000 146.0000
-2.6895 -4.8001 4.1988 5.0000 163.0000
-2.7106 -4.7690 4.1861 5.0000 237.0000
-2.7347 -4.7433 4.1782 7.0000 133.0000
-2.7569 -4.7147 4.1680 8.0000 152.0000
-2.7695 -4.6703 4.1438 7.0000 252.0000
-2.8006 -4.6573 4.1474 7.0000 102.0000
-2.8266 -4.6360 4.1438 8.0000 97.0000
-2.8437 -4.6002 4.1274 7.0000 159.0000
-2.8263 -4.5098 4.0621 7.0000 261.0000
-2.8659 -4.5112 4.0790 6.0000 215.0000
-2.9150 -4.5270 4.1093 7.0000 83.0000
-2.9536 -4.5257 4.1244 6.0000 62.0000
-2.9840 -4.5115 4.1280 6.0000 73.0000
-3.0089 -4.4891 4.1244 6.0000 198.0000
-3.0650 -4.5128 4.1631 4.0000 257.0000
-3.0999 -4.5044 4.1728 4.0000 269.0000
-3.1443 -4.5094 4.1952 6.0000 348.0000
-3.1673 -4.4836 4.1891 6.0000 264.0000
-3.1211 -4.3610 4.0929 3.0000 266.0000
-2.6712 -3.6832 3.4752 2.0000 248.0000
-2.8849 -3.9275 3.7209 6.0000 164.0000
-2.9061 -3.9059 3.7172 7.0000 81.0000
-2.8893 -3.8339 3.6658 6.0000 62.0000
-2.8964 -3.7945 3.6452 8.0000 94.0000
-2.9153 -3.7710 3.6398 3.0000 166.0000
-3.5080 -4.4821 4.3428 2.0000 191.0000
-3.5255 -4.4480 4.3307 2.0000 249.0000
-3.5538 -4.4275 4.3319 3.0000 167.0000
-3.3852 -4.1645 4.0960 3.0000 241.0000
-3.3667 -4.0902 4.0433 4.0000 110.0000
-3.3699 -4.0431 4.0173 2.0000 201.0000
-2.9488 -3.4932 3.4916 1.0000 215.0000
-3.3562 -3.9275 3.9435 4.0000 118.0000
-2.5850 -2.9861 3.0190 3.0000 201.0000
-2.5986 -2.9648 3.0136 11.0000 79.0000
-2.6072 -2.9381 3.0027 15.0000 109.0000
-2.6199 -2.9161 2.9967 17.0000 78.0000
-2.6575 -2.9218 3.0190 11.0000 69.0000
-2.7427 -2.9787 3.0947 9.0000 115.0000
-2.8222 -3.0277 3.1630 11.0000 76.0000
-2.8533 -3.0237 3.1769 7.0000 99.0000
-3.8749 -4.0585 4.2817 7.0000 106.0000
-3.8948 -4.0295 4.2763 7.0000 92.0000
-3.9122 -3.9981 4.2684 10.0000 160.0000
-3.9266 -3.9638 4.2575 10.0000 87.0000
-3.9463 -3.9351 4.2527 12.0000 115.0000
-3.9381 -3.8790 4.2182 7.0000 90.0000
-3.9692 -3.8620 4.2260 7.0000 74.0000
-3.9831 -3.8282 4.2158 9.0000 88.0000
-4.0007 -3.7982 4.2097 8.0000 109.0000
-4.0159 -3.7659 4.2012 8.0000 125.0000
-4.0231 -3.7266 4.1849 5.0000 127.0000
-3.4542 -3.1595 3.5750 2.0000 203.0000
-2.9813 -2.6926 3.0705 1.0000 325.0000
-4.4929 -4.0112 4.5945 3.0000 207.0000
-3.4533 -3.0438 3.5158 2.0000 139.0000
-4.8051 -4.1855 4.8601 2.0000 194.0000
-3.4482 -2.9648 3.4734 1.0000 179.0000
-3.7216 -3.1608 3.7281 2.0000 136.0000
-4.3761 -3.6717 4.3585 3.0000 236.0000
-4.3305 -3.5883 4.2914 8.0000 113.0000
-4.2669 -3.4915 4.2073 8.0000 148.0000
-4.1917 -3.3871 4.1129 7.0000 137.0000
-4.2453 -3.3877 4.1450 6.0000 163.0000
-4.3035 -3.3912 4.1813 8.0000 112.0000
-4.3035 -3.3486 4.1613 8.0000 146.0000
-4.1088 -3.1565 3.9550 7.0000 192.0000
-4.3646 -3.3109 4.1807 8.0000 154.0000
-4.3816 -3.2817 4.1776 6.0000 142.0000
-4.2936 -3.1747 4.0754 5.0000 105.0000
-4.4274 -3.2319 4.1831 3.0000 75.0000
-4.5123 -3.2517 4.2442 5.0000 127.0000
-4.7436 -3.3746 4.4414 7.0000 176.0000
-4.7896 -3.3633 4.4650 7.0000 155.0000
-4.7702 -3.3062 4.4281 4.0000 356.0000
-4.3398 -2.9681 4.0131 5.0000 114.0000
-4.3652 -2.9463 4.0197 5.0000 79.0000
-4.4620 -2.9721 4.0917 3.0000 216.0000
-4.6318 -3.0445 4.2297 5.0000 201.0000
-4.6370 -3.0073 4.2176 2.0000 109.0000
-4.6554 -2.9788 4.2176 4.0000 117.0000
-4.6588 -2.9408 4.2043 4.0000 75.0000
-4.6443 -2.8920 4.1752 5.0000 76.0000
-4.6403 -2.8501 4.1559 6.0000 66.0000
-4.6788 -2.8343 4.1746 7.0000 81.0000
-4.7391 -2.8313 4.2127 6.0000 135.0000
-4.7722 -2.8115 4.2267 7.0000 236.0000
-4.8623 -2.8246 4.2908 6.0000 74.0000
-4.8927 -2.8023 4.3023 7.0000 60.0000
-4.9146 -2.7750 4.3065 7.0000 85.0000
-4.1430 -2.3050 3.6204 4.0000 63.0000
-4.9497 -2.7152 4.3077 4.0000 67.0000
-4.9747 -2.6893 4.3150 4.0000 105.0000
-4.9812 -2.6535 4.3065 5.0000 86.0000
-4.1306 -2.1671 3.5623 2.0000 153.0000
-4.1672 -2.1538 3.5823 2.0000 185.0000
-4.2420 -2.1596 3.6349 4.0000 292.0000
-4.2360 -2.1239 3.6186 5.0000 153.0000
-4.2939 -2.1201 3.6567 3.0000 299.0000
-5.0755 -2.4684 4.3065 4.0000 204.0000
-4.9104 -2.3507 4.1547 3.0000 134.0000
-4.7894 -2.2566 4.0409 2.0000 184.0000
-4.8161 -2.2333 4.0518 3.0000 136.0000
-4.8804 -2.2268 4.0942 5.0000 127.0000
-4.8591 -2.1812 4.0651 4.0000 126.0000
-4.2266 -1.8655 3.5285 2.0000 161.0000
-4.6607 -2.0235 3.8788 3.0000 237.0000
-4.1935 -1.7897 3.4825 3.0000 320.0000
-4.3923 -1.8430 3.6374 3.0000 261.0000
-4.3712 -1.8026 3.6107 6.0000 198.0000
-4.5570 -1.8468 3.7541 5.0000 173.0000
-4.7272 -1.8822 3.8842 3.0000 207.0000
-4.4029 -1.7215 3.6101 5.0000 173.0000
-4.3160 -1.6570 3.5309 3.0000 290.0000
-4.6508 -1.7532 3.7947 5.0000 183.0000
-4.4144 -1.6330 3.5944 5.0000 133.0000
-4.3413 -1.5756 3.5273 6.0000 99.0000
-4.3276 -1.5407 3.5085 6.0000 138.0000
-4.4174 -1.5423 3.5732 7.0000 107.0000
-4.4848 -1.5350 3.6198 6.0000 86.0000
-4.5439 -1.5242 3.6598 6.0000 85.0000
-4.6061 -1.5138 3.7021 5.0000 87.0000
-4.6047 -1.4821 3.6936 3.0000 79.0000
-4.5302 -1.4274 3.6271 4.0000 122.0000
-4.5594 -1.4059 3.6434 5.0000 113.0000
-4.6282 -1.3961 3.6912 7.0000 98.0000
-4.6260 -1.3645 3.6827 6.0000 131.0000
-4.6205 -1.3322 3.6719 3.0000 59.0000
-5.9717 -1.6835 4.7324 5.0000 91.0000
-4.7025 -1.2936 3.7239 3.0000 79.0000
-4.7096 -1.2645 3.7233 6.0000 75.0000
-4.7165 -1.2354 3.7227 7.0000 96.0000
-4.7286 -1.2076 3.7263 7.0000 137.0000
-4.8410 -1.2048 3.8086 5.0000 190.0000
-4.8405 -1.1732 3.8025 5.0000 142.0000
-4.9693 -1.1723 3.8975 7.0000 92.0000
-4.9911 -1.1452 3.9090 8.0000 76.0000
-5.0089 -1.1170 3.9175 8.0000 91.0000
-5.0616 -1.0962 3.9532 5.0000 161.0000
-5.0464 -1.0605 3.9362 3.0000 193.0000
-4.9116 -1.0006 3.8267 3.0000 248.0000
-5.5151 -1.0889 4.2896 2.0000 170.0000
-5.5131 -1.0534 4.2829 4.0000 109.0000
-5.4263 -1.0023 4.2109 6.0000 181.0000
-5.4010 -0.9634 4.1867 5.0000 128.0000
-7.5775 1.3164 5.7053 3.0000 79.0000
-7.5653 1.3621 5.7023 5.0000 87.0000
-7.6232 1.4210 5.7523 4.0000 99.0000
-7.6206 1.4689 5.7570 5.0000 53.0000
-7.6241 1.5182 5.7665 5.0000 90.0000
-7.5060 1.5425 5.6845 2.0000 139.0000
-3.4955 0.7382 2.6601 1.0000 94.0000
-7.2846 1.5903 5.5317 4.0000 113.0000
-7.1476 1.6063 5.4354 3.0000 108.0000
-7.1251 1.6473 5.4259 3.0000 213.0000
-7.1063 1.6889 5.4193 3.0000 83.0000
-7.0762 1.7277 5.4045 3.0000 84.0000
-3.3365 0.8338 2.5614 1.0000 113.0000
-7.0872 1.8228 5.4294 2.0000 96.0000
-7.0751 1.8661 5.4288 2.0000 78.0000
-7.5036 2.0287 5.7659 2.0000 161.0000
-3.3762 0.9324 2.6083 1.0000 98.0000
-7.6073 2.1573 5.8652 2.0000 167.0000
-7.4727 2.1687 5.7719 1.0000 110.0000
-12.0910 3.5927 9.3451 3.0000 75.0000
-7.5763 2.3000 5.8730 3.0000 110.0000
-4.7135 1.4608 3.6672 1.0000 83.0000
-4.7067 1.4904 3.6690 2.0000 74.0000
-4.6837 1.5148 3.6583 1.0000 90.0000
-4.6614 1.5392 3.6482 3.0000 82.0000
-4.6587 1.5701 3.6535 3.0000 70.0000
-4.6816 1.6099 3.6791 1.0000 75.0000
-4.6171 1.6194 3.6363 4.0000 75.0000
-4.6033 1.6463 3.6333 2.0000 68.0000
-11.6471 4.2539 9.1869 5.0000 98.0000
-4.8442 1.8001 3.8396 1.0000 93.0000
-4.7992 1.8170 3.8129 1.0000 81.0000
-4.5945 1.7716 3.6595 2.0000 88.0000
-4.5902 1.8024 3.6648 2.0000 102.0000
-4.6761 1.8694 3.7421 3.0000 71.0000
-4.6497 1.8920 3.7302 2.0000 111.0000
-11.4061 4.7303 9.1489 3.0000 90.0000
-11.3502 4.7890 9.1275 4.0000 91.0000
-4.5875 1.9658 3.7088 1.0000 111.0000
-4.5915 2.0010 3.7219 1.0000 128.0000
-3.1536 1.3959 2.5685 1.0000 156.0000
-3.2021 1.4410 2.6149 1.0000 149.0000
-4.4670 2.0453 3.6512 2.0000 98.0000
-3.1500 1.4642 2.5869 1.0000 117.0000
-3.1242 1.4756 2.5733 1.0000 159.0000
-4.2974 2.0640 3.5435 1.0000 157.0000
-3.1052 1.5135 2.5727 1.0000 204.0000
-5.8798 2.9153 4.8712 3.0000 128.0000
-5.8561 2.9484 4.8664 1.0000 187.0000
-4.0229 2.0549 3.3586 3.0000 103.0000
-3.9738 2.0606 3.3283 1.0000 113.0000
-3.8957 2.0504 3.2736 3.0000 68.0000
-3.8873 2.0766 3.2772 3.0000 153.0000
-4.1585 2.2547 3.5162 2.0000 198.0000
-3.9453 2.1703 3.3479 1.0000 142.0000
-5.7325 3.2019 4.8735 1.0000 122.0000
-9.2588 5.2496 7.8885 1.0000 172.0000
-3.8009 2.1828 3.2594 1.0000 108.0000
-3.8214 2.2259 3.2885 1.0000 131.0000
-3.7821 2.2342 3.2665 1.0000 134.0000
-3.7504 2.2466 3.2510 1.0000 129.0000
-4.4501 2.7040 3.8688 5.0000 127.0000
-4.4416 2.7363 3.8759 7.0000 94.0000
-4.4241 2.7631 3.8753 6.0000 92.0000
-4.4138 2.7945 3.8812 4.0000 90.0000
-4.2722 2.7415 3.7719 2.0000 143.0000
-3.9818 2.5894 3.5305 4.0000 123.0000
-4.0792 2.6887 3.6309 1.0000 134.0000
-4.0660 2.7159 3.6339 3.0000 107.0000
-4.3826 2.9669 3.9318 2.0000 161.0000
-3.9647 2.7192 3.5733 2.0000 225.0000
-3.7856 2.6304 3.4270 2.0000 267.0000
-5.1170 3.6043 4.6464 1.0000 188.0000
-4.3314 3.0900 3.9526 2.0000 148.0000
-4.0049 2.8939 3.6720 1.0000 166.0000
-4.1271 3.0212 3.8004 3.0000 171.0000
-2.7873 2.0649 2.5834 1.0000 214.0000
-2.9770 2.2342 2.7706 2.0000 137.0000
-2.9536 2.2451 2.7617 4.0000 108.0000
-2.9818 2.2957 2.8010 2.0000 93.0000
-3.8767 3.0245 3.6541 1.0000 117.0000
-3.2446 2.5626 3.0756 1.0000 160.0000
-3.0714 2.4563 2.9264 2.0000 129.0000
-3.0544 2.4735 2.9246 3.0000 80.0000
-3.0000 2.4601 2.8872 3.0000 105.0000
-3.0658 2.5458 2.9651 1.0000 139.0000
-3.0317 2.5490 2.9472 1.0000 194.0000
-2.9585 2.5185 2.8913 2.0000 111.0000
-3.0099 2.5945 2.9567 3.0000 112.0000
-3.0042 2.6219 2.9668 3.0000 122.0000
-3.0206 2.6691 2.9989 1.0000 150.0000
-2.8449 2.5448 2.8408 1.0000 232.0000
-4.6706 4.2338 4.6797 2.0000 124.0000
-4.5558 4.1808 4.5905 1.0000 118.0000
-2.9889 2.7747 3.0340 1.0000 92.0000
-4.5814 4.3091 4.6690 1.0000 145.0000
-2.9093 2.7679 2.9876 1.0000 153.0000
-4.4830 4.3215 4.6226 3.0000 113.0000
-2.9027 2.8304 3.0162 1.0000 283.0000
-3.9432 3.8949 4.1167 4.0000 126.0000
-3.8840 3.8837 4.0798 6.0000 85.0000
-3.8545 3.9018 4.0739 6.0000 68.0000
-3.8327 3.9276 4.0763 3.0000 155.0000
-3.0983 3.2130 3.3188 1.0000 195.0000
-3.0641 3.2168 3.3034 1.0000 131.0000
-3.0316 3.2220 3.2897 1.0000 136.0000
-3.0145 3.2435 3.2926 1.0000 192.0000
-5.0417 5.4965 5.5335 2.0000 136.0000
-4.2466 4.6861 4.6946 1.0000 93.0000
-4.4504 4.9723 4.9526 4.0000 129.0000
-4.5007 5.0911 5.0430 4.0000 60.0000
-4.4804 5.1314 5.0555 4.0000 82.0000
-4.2468 4.9242 4.8266 2.0000 145.0000
-4.4260 5.1964 5.0656 3.0000 140.0000
-4.2994 5.1108 4.9568 2.0000 101.0000
-4.4784 5.3908 5.2005 2.0000 97.0000
-4.3072 5.2496 5.0394 2.0000 112.0000
-4.4519 5.4947 5.2475 2.0000 123.0000
-4.1736 5.2160 4.9580 1.0000 161.0000
-4.1774 5.2869 5.0008 4.0000 81.0000
-4.1390 5.3049 4.9936 6.0000 61.0000
-4.1034 5.3263 4.9901 1.0000 89.0000
-4.5609 5.9968 5.5894 1.0000 106.0000
-4.5486 6.0575 5.6197 1.0000 113.0000
-3.7104 5.0035 4.6244 6.0000 72.0000
-3.6303 4.9587 4.5626 7.0000 55.0000
-3.5923 4.9705 4.5531 7.0000 51.0000
-3.5906 5.0330 4.5899 11.0000 76.0000
-3.5722 5.0727 4.6060 9.0000 71.0000
-3.5616 5.1243 4.6327 4.0000 76.0000
-4.2839 6.2466 5.6191 3.0000 113.0000
-3.5678 5.2702 4.7243 3.0000 78.0000
-3.5104 5.2545 4.6910 6.0000 93.0000
-3.4670 5.2591 4.6761 7.0000 66.0000
-3.4303 5.2736 4.6702 10.0000 67.0000
-3.3992 5.2966 4.6720 9.0000 92.0000
-3.3688 5.3207 4.6750 9.0000 47.0000
-3.3489 5.3617 4.6928 7.0000 61.0000
-3.3256 5.3979 4.7065 7.0000 47.0000
-3.3174 5.4595 4.7421 6.0000 88.0000
-3.3371 5.5688 4.8188 3.0000 175.0000
-3.2767 5.5448 4.7808 1.0000 271.0000
-2.8796 4.9407 4.2469 3.0000 106.0000
-2.1431 3.7272 3.1975 2.0000 108.0000
-2.6371 4.6544 3.9740 7.0000 92.0000
-2.6171 4.6859 3.9871 4.0000 85.0000
-2.6564 4.8259 4.0917 5.0000 75.0000
-2.6823 4.9447 4.1779 4.0000 73.0000
-1.8726 3.5003 2.9538 2.0000 88.0000
-1.8728 3.5530 2.9882 2.0000 68.0000
-2.5775 4.9675 4.1565 6.0000 79.0000
-2.5480 4.9854 4.1583 5.0000 90.0000
-1.7389 3.4511 2.8759 4.0000 104.0000
-1.6898 3.4055 2.8295 2.0000 277.0000
-1.6650 3.4078 2.8230 1.0000 141.0000
-1.6521 3.4347 2.8366 2.0000 153.0000
-1.7648 3.7283 3.0685 2.0000 200.0000
-1.6904 3.6282 2.9781 4.0000 155.0000
-2.9510 6.4453 5.2600 5.0000 89.0000
-2.9140 6.4691 5.2647 1.0000 177.0000
-1.5414 3.4734 2.8283 2.0000 104.0000
-1.4829 3.3973 2.7593 1.0000 175.0000
-2.5981 6.0626 4.8955 4.0000 114.0000
-1.4532 3.4442 2.7825 1.0000 243.0000
-2.5106 6.0628 4.8706 6.0000 118.0000
-1.5800 3.8782 3.1149 3.0000 80.0000
-1.3932 3.4793 2.7897 2.0000 144.0000
-1.3597 3.4571 2.7653 7.0000 115.0000
-1.3411 3.4721 2.7706 6.0000 89.0000
-1.3221 3.4863 2.7754 4.0000 148.0000
-1.3210 3.5494 2.8188 6.0000 86.0000
-1.3102 3.5876 2.8426 5.0000 107.0000
-1.2931 3.6092 2.8533 3.0000 127.0000
-1.2690 3.6118 2.8491 1.0000 79.0000
-1.2375 3.5921 2.8277 1.0000 67.0000
-1.2144 3.5966 2.8253 1.0000 74.0000
-1.1880 3.5910 2.8152 1.0000 40.0000
-1.1669 3.6013 2.8176 1.0000 55.0000
-2.5581 8.0822 6.2868 1.0000 38.0000
-2.5087 8.0985 6.2874 3.0000 62.0000
-2.4757 8.1691 6.3302 3.0000 41.0000
-2.3996 8.0963 6.2624 1.0000 46.0000
-2.3467 8.1000 6.2541 1.0000 51.0000
-2.2869 8.0787 6.2267 1.0000 54.0000
-2.6320 9.5234 7.3242 1.0000 50.0000
-2.6072 9.6644 7.4200 2.0000 47.0000
-2.1965 8.3426 6.3973 2.0000 53.0000
-2.1478 8.3660 6.4051 1.0000 52.0000
-2.1931 8.7660 6.7000 1.0000 53.0000
-2.1371 8.7707 6.6934 1.0000 76.0000
