-2.4632 4.9616 2.9361 7.0000 103.0000
-2.4413 4.9941 2.9463 5.0000 205.0000
-3.5415 7.3636 4.3194 4.0000 259.0000
-2.3631 4.9885 2.9258 9.0000 100.0000
-2.3351 5.0085 2.9291 9.0000 92.0000
-2.3036 5.0211 2.9282 9.0000 99.0000
-2.2644 5.0166 2.9175 4.0000 75.0000
-2.8693 6.4652 3.7424 9.0000 102.0000
-2.2338 5.1154 2.9584 10.0000 73.0000
-2.2030 5.1307 2.9593 11.0000 80.0000
-2.1725 5.1465 2.9607 10.0000 120.0000
-2.8083 6.7717 3.8778 5.0000 206.0000
-2.3494 5.7631 3.2957 3.0000 380.0000
-2.1067 5.2588 3.0021 8.0000 369.0000
-2.5405 6.4589 3.6726 9.0000 392.0000
-1.8194 4.7070 2.6769 7.0000 142.0000
-1.7849 4.7031 2.6685 7.0000 69.0000
-1.7359 4.6601 2.6383 9.0000 91.0000
-1.7088 4.6748 2.6406 11.0000 56.0000
-1.7194 4.7952 2.7020 4.0000 102.0000
-1.7993 5.1172 2.8756 8.0000 113.0000
-1.8018 5.2269 2.9305 6.0000 93.0000
-1.9579 5.7965 3.2404 7.0000 139.0000
-1.8538 5.6008 3.1254 9.0000 81.0000
-1.8314 5.6492 3.1459 14.0000 117.0000
-1.8084 5.6974 3.1664 10.0000 73.0000
-1.7907 5.7642 3.1971 8.0000 89.0000
-1.7587 5.7861 3.2031 9.0000 157.0000
-1.5971 5.3716 2.9700 11.0000 117.0000
-1.5557 5.3524 2.9542 8.0000 56.0000
-1.5226 5.3610 2.9537 8.0000 65.0000
-1.5260 5.5016 3.0254 7.0000 176.0000
-1.6030 5.9211 3.2487 8.0000 206.0000
-1.5391 5.8264 3.1920 10.0000 141.0000
-1.5040 5.8383 3.1934 10.0000 90.0000
-1.5356 6.1170 3.3395 9.0000 234.0000
-1.5253 6.2381 3.4000 11.0000 154.0000
-1.4874 6.2491 3.4009 4.0000 76.0000
-1.2756 5.5069 2.9956 8.0000 174.0000
-1.4170 6.2954 3.4163 9.0000 280.0000
-1.2089 5.5264 2.9979 8.0000 225.0000
-1.1832 5.5727 3.0189 9.0000 170.0000
-1.1531 5.5998 3.0296 10.0000 199.0000
-1.1197 5.6120 3.0324 11.0000 116.0000
-1.1221 5.8100 3.1347 9.0000 111.0000
-1.1536 6.1779 3.3279 8.0000 144.0000
-1.0058 5.5733 3.0012 7.0000 319.0000
-0.9653 5.5436 2.9821 11.0000 112.0000
-0.9344 5.5677 2.9919 11.0000 75.0000
-0.9082 5.6232 3.0184 10.0000 72.0000
-0.8768 5.6488 3.0291 4.0000 63.0000
-0.8444 5.6698 3.0375 3.0000 71.0000
-0.8039 5.6346 3.0161 8.0000 88.0000
-0.9122 6.6928 3.5749 7.0000 133.0000
-0.8681 6.6746 3.5624 7.0000 133.0000
-0.7502 6.0552 3.2315 3.0000 78.0000
-0.7802 6.6346 3.5358 6.0000 110.0000
-0.7427 6.6683 3.5512 5.0000 100.0000
-0.6153 5.8452 3.1138 7.0000 72.0000
-0.5809 5.8639 3.1217 8.0000 87.0000
-0.6803 7.3366 3.8974 8.0000 107.0000
-0.6726 7.7746 4.1263 11.0000 96.0000
-0.6242 7.7706 4.1221 12.0000 104.0000
-0.5501 7.4150 3.9327 10.0000 93.0000
-0.5048 7.4218 3.9346 10.0000 122.0000
-0.4709 7.6156 4.0351 9.0000 132.0000
-0.4379 7.8667 4.1659 9.0000 75.0000
-0.3976 8.0319 4.2515 6.0000 83.0000
-0.3484 8.0359 4.2524 8.0000 106.0000
-0.2613 7.0083 3.7108 1.0000 76.0000
-0.3506 11.3432 5.9899 10.0000 51.0000
-0.1851 7.4136 3.9225 4.0000 60.0000
-0.1394 7.4049 3.9174 1.0000 72.0000
-0.0938 7.3896 3.9090 9.0000 89.0000
-0.0458 6.9528 3.6792 9.0000 242.0000
-0.0031 7.3805 3.9039 4.0000 152.0000
0.0420 7.3476 3.8867 5.0000 130.0000
0.0871 7.3525 3.8895 11.0000 111.0000
0.1313 7.2997 3.8620 7.0000 104.0000
0.1732 7.1819 3.8006 7.0000 123.0000
0.2066 6.8374 3.6201 9.0000 74.0000
0.4096 11.1889 5.9098 9.0000 173.0000
0.4826 11.2870 5.9629 11.0000 75.0000
0.4884 9.9966 5.2854 5.0000 124.0000
0.5480 9.9625 5.2691 9.0000 129.0000
0.4137 6.7864 3.5982 3.0000 85.0000
0.4551 6.7793 3.5959 5.0000 65.0000
0.8197 11.1468 5.8996 10.0000 72.0000
0.8922 11.1927 5.9266 6.0000 99.0000
0.9571 11.1430 5.9033 10.0000 87.0000
0.6905 7.5144 3.9909 7.0000 107.0000
0.7329 7.4730 3.9714 9.0000 71.0000
0.6828 6.5528 3.4875 8.0000 79.0000
1.2257 11.0748 5.8814 8.0000 255.0000
0.8825 7.5620 4.0263 8.0000 62.0000
0.9254 7.5283 4.0114 11.0000 60.0000
0.9724 7.5286 4.0146 6.0000 84.0000
1.5194 11.2054 5.9685 8.0000 55.0000
1.5644 11.0293 5.8801 3.0000 78.0000
1.6274 10.9880 5.8633 7.0000 70.0000
1.6944 10.9752 5.8619 8.0000 63.0000
1.7663 10.9934 5.8773 5.0000 75.0000
1.8361 10.9963 5.8847 9.0000 56.0000
1.9031 10.9823 5.8833 13.0000 57.0000
1.9695 10.9651 5.8805 5.0000 54.0000
2.0353 10.9450 5.8763 3.0000 84.0000
4.7996 24.9284 13.3691 10.0000 67.0000
4.9526 24.8993 13.3696 7.0000 39.0000
5.1262 24.9699 13.4241 8.0000 31.0000
2.0087 7.6331 4.1733 1.0000 36.0000
2.0403 7.5642 4.1426 5.0000 64.0000
2.0626 7.4646 4.0951 9.0000 52.0000
2.0987 7.4177 4.0765 11.0000 49.0000
2.1400 7.3902 4.0686 10.0000 61.0000
2.1822 7.3668 4.0630 13.0000 68.0000
2.2300 7.3617 4.0677 13.0000 49.0000
2.2785 7.3589 4.0737 11.0000 57.0000
2.3348 7.3802 4.0933 3.0000 45.0000
4.5113 9.3949 5.5027 1.0000 39.0000
4.3063 8.8293 5.1881 5.0000 77.0000
4.3404 8.7623 5.1644 7.0000 73.0000
4.4234 8.6611 5.1365 1.0000 61.0000
4.5564 8.7878 5.2277 3.0000 158.0000
4.7146 8.9578 5.3454 5.0000 105.0000
4.7407 8.8748 5.3133 5.0000 57.0000
4.7528 8.7678 5.2668 5.0000 62.0000
4.7374 8.6128 5.1914 3.0000 51.0000
4.7495 8.5109 5.1477 2.0000 54.0000
4.3823 7.7416 4.7005 6.0000 107.0000
4.3922 7.6493 4.6610 3.0000 76.0000
5.4279 9.3183 5.6930 5.0000 118.0000
5.4917 9.2962 5.7000 5.0000 141.0000
5.5933 9.3368 5.7456 3.0000 147.0000
5.2242 8.6011 5.3142 4.0000 151.0000
5.2866 8.5847 5.3240 4.0000 150.0000
5.3462 8.5634 5.3310 4.0000 236.0000
5.5199 8.7219 5.4501 9.0000 110.0000
5.5499 8.6513 5.4273 5.0000 108.0000
4.7242 7.2669 4.5805 5.0000 31.0000
4.7794 7.2540 4.5907 6.0000 130.0000
5.4544 8.1680 5.1872 5.0000 77.0000
5.5422 8.1901 5.2226 6.0000 58.0000
5.0083 7.3049 4.6800 7.0000 61.0000
5.0727 7.3024 4.6982 3.0000 144.0000
5.9132 8.4007 5.4245 3.0000 96.0000
5.9482 8.3412 5.4096 12.0000 154.0000
6.0459 8.3691 5.4515 3.0000 91.0000
6.0580 8.2783 5.4166 3.0000 137.0000
6.0533 8.1663 5.3678 2.0000 97.0000
6.0517 8.0604 5.3226 4.0000 85.0000
5.3580 7.0469 4.6777 3.0000 89.0000
6.3079 8.1902 5.4585 3.0000 160.0000
6.2725 8.0418 5.3854 12.0000 97.0000
6.4135 8.1191 5.4631 6.0000 57.0000
5.4104 6.7647 4.5777 5.0000 77.0000
5.4518 6.7314 4.5777 5.0000 63.0000
5.5346 6.7484 4.6121 1.0000 42.0000
5.5181 6.6449 4.5646 1.0000 43.0000
6.5518 7.6943 5.3366 1.0000 38.0000
6.5393 7.5850 5.2886 6.0000 23.0000
6.6195 7.5834 5.3156 3.0000 30.0000
6.6430 7.5167 5.2975 1.0000 35.0000
6.7199 7.4183 5.2859 1.0000 27.0000
18.9367 14.2259 12.4748 1.0000 40.0000
19.0045 14.0952 12.4623 1.0000 27.0000
19.1213 14.0008 12.4823 3.0000 38.0000
19.3905 14.0160 12.6014 2.0000 31.0000
19.4221 13.8582 12.5665 7.0000 31.0000
19.2593 13.5645 12.4074 6.0000 47.0000
19.3181 13.4294 12.3920 6.0000 54.0000
19.6798 13.5023 12.5702 7.0000 78.0000
19.3151 13.0787 12.2864 6.0000 44.0000
19.4649 13.0066 12.3306 5.0000 39.0000
16.5903 10.9399 10.4708 3.0000 45.0000
19.1541 12.4618 12.0365 2.0000 58.0000
19.1810 12.3125 12.0058 6.0000 38.0000
19.2517 12.1917 12.0030 7.0000 68.0000
19.1107 11.9388 11.8695 2.0000 85.0000
15.9745 9.8447 9.8882 3.0000 64.0000
15.6836 9.5332 9.6723 2.0000 96.0000
15.7107 9.4182 9.6532 4.0000 65.0000
15.8253 9.3554 9.6881 3.0000 39.0000
15.5796 9.0816 9.5039 4.0000 45.0000
15.6527 8.9960 9.5146 5.0000 67.0000
15.6536 8.8693 9.4820 4.0000 59.0000
15.6668 8.7502 9.4573 2.0000 55.0000
15.5977 8.5865 9.3838 1.0000 39.0000
15.4166 8.3640 9.2442 4.0000 64.0000
14.0218 7.4967 8.3825 3.0000 67.0000
16.2497 8.5593 9.6788 4.0000 87.0000
16.2689 8.4423 9.6593 9.0000 72.0000
14.2969 7.3087 8.4648 7.0000 62.0000
14.9369 7.5204 8.8152 5.0000 107.0000
14.3221 7.1012 8.4276 4.0000 100.0000
15.0869 7.3652 8.8496 2.0000 68.0000
16.3933 7.8784 9.5853 5.0000 81.0000
14.5616 6.8890 8.4923 5.0000 54.0000
14.5916 6.7939 8.4853 3.0000 59.0000
19.0272 8.7161 11.0259 3.0000 81.0000
14.7441 6.6460 8.5258 6.0000 44.0000
14.5094 6.4335 8.3676 6.0000 84.0000
16.5813 7.2301 9.5332 7.0000 67.0000
16.1510 6.9249 9.2619 5.0000 49.0000
16.1647 6.8137 9.2456 5.0000 65.0000
16.1481 6.6903 9.2126 6.0000 50.0000
15.4468 6.2892 8.7915 4.0000 61.0000
15.4925 6.1973 8.7957 2.0000 45.0000
19.2931 7.5795 10.9207 2.0000 58.0000
16.0605 6.1968 9.0734 2.0000 44.0000
16.1951 6.1348 9.1279 1.0000 43.0000
16.1436 6.0023 9.0781 2.0000 38.0000
20.3033 7.4063 11.3851 2.0000 61.0000
20.2958 7.2628 11.3558 3.0000 69.0000
23.4155 8.2167 13.0690 3.0000 50.0000
16.9364 5.8280 9.4396 1.0000 64.0000
17.0289 5.7432 9.4713 1.0000 84.0000
17.0865 5.6461 9.4838 3.0000 66.0000
17.0552 5.5199 9.4476 7.0000 62.0000
17.2744 5.4739 9.5499 4.0000 68.0000
17.0717 5.2947 9.4201 6.0000 70.0000
19.8340 6.0176 10.9198 2.0000 99.0000
17.1549 5.0906 9.4308 5.0000 35.0000
19.1217 5.5463 10.4903 2.0000 63.0000
20.1143 5.7004 11.0142 4.0000 66.0000
22.2596 6.1606 12.1654 3.0000 81.0000
19.8384 5.3602 10.8267 4.0000 59.0000
22.5055 5.7848 12.2394 3.0000 74.0000
20.3965 5.1100 11.0775 2.0000 76.0000
20.2245 4.9352 10.9677 2.0000 69.0000
21.9330 5.2094 11.8746 2.0000 76.0000
23.2263 5.3660 12.5553 3.0000 68.0000
20.0666 4.5071 10.8356 8.0000 55.0000
17.9500 3.9166 9.6821 3.0000 58.0000
24.2105 5.1257 13.0332 2.0000 71.0000
17.4374 3.5813 9.3819 1.0000 53.0000
17.8237 3.5467 9.5774 4.0000 56.0000
17.8451 3.4373 9.5774 6.0000 67.0000
17.7101 3.2987 9.4941 5.0000 62.0000
16.8544 3.0327 9.0264 2.0000 74.0000
17.8565 3.0998 9.5513 3.0000 84.0000
17.9442 3.0017 9.5881 2.0000 76.0000
16.8593 2.7142 9.0009 1.0000 76.0000
16.9080 2.6157 9.0181 1.0000 86.0000
16.9535 2.5163 9.0339 4.0000 68.0000
16.9792 2.4138 9.0395 6.0000 50.0000
17.1235 2.3271 9.1083 7.0000 42.0000
17.1252 2.2204 9.1018 3.0000 65.0000
17.0796 2.1081 9.0707 3.0000 56.0000
17.1036 2.0046 9.0767 6.0000 50.0000
17.0109 1.8880 9.0213 9.0000 86.0000
18.0821 1.8944 9.5816 7.0000 61.0000
17.8468 1.7591 9.4513 8.0000 62.0000
17.7153 1.6365 9.3764 4.0000 53.0000
18.9800 1.6357 10.0385 2.0000 64.0000
23.2276 1.8572 12.2734 8.0000 63.0000
18.9430 1.3985 10.0092 8.0000 76.0000
18.7631 1.2696 9.9101 8.0000 36.0000
19.0179 1.1696 10.0403 10.0000 55.0000
14.0480 0.7786 7.4202 5.0000 67.0000
14.0446 0.6920 7.4160 12.0000 39.0000
14.0379 0.6053 7.4104 7.0000 70.0000
14.0387 0.5191 7.4090 7.0000 54.0000
14.0965 0.4346 7.4379 12.0000 57.0000
14.1662 0.3498 7.4733 11.0000 32.0000
14.0574 0.2608 7.4151 10.0000 54.0000
13.9269 0.1730 7.3458 10.0000 65.0000
14.0286 0.0881 7.3988 8.0000 51.0000
14.0466 0.0020 7.4081 9.0000 53.0000
14.0118 -0.0840 7.3900 8.0000 102.0000
13.7508 -0.1667 7.2532 9.0000 79.0000
13.8398 -0.2527 7.3006 9.0000 77.0000
13.7229 -0.3348 7.2401 10.0000 51.0000
13.8259 -0.4223 7.2955 6.0000 47.0000
12.1831 -0.4464 6.4328 10.0000 50.0000
12.1545 -0.5201 6.4193 12.0000 56.0000
11.9248 -0.5835 6.3002 11.0000 50.0000
11.8697 -0.6538 6.2732 11.0000 53.0000
11.8584 -0.7262 6.2695 9.0000 56.0000
11.8881 -0.8012 6.2877 9.0000 57.0000
13.7094 -1.0092 7.2504 6.0000 60.0000
12.0971 -0.9647 6.4035 9.0000 76.0000
12.0927 -1.0390 6.4045 6.0000 61.0000
14.4632 -1.3330 7.6594 11.0000 57.0000
14.9023 -1.4659 7.8958 4.0000 81.0000
13.7635 -1.4389 7.2988 3.0000 75.0000
15.3116 -1.6962 8.1224 5.0000 76.0000
13.7739 -1.6110 7.3141 5.0000 80.0000
13.5933 -1.6745 7.2239 8.0000 43.0000
13.6495 -1.7665 7.2592 5.0000 74.0000
13.6472 -1.8514 7.2639 4.0000 60.0000
13.7477 -1.9511 7.3234 6.0000 45.0000
13.6724 -2.0260 7.2899 8.0000 42.0000
13.6615 -2.1102 7.2909 8.0000 39.0000
13.6998 -2.2023 7.3183 11.0000 38.0000
13.6773 -2.2848 7.3137 10.0000 45.0000
13.4276 -2.3278 7.1880 10.0000 67.0000
13.3364 -2.3963 7.1471 11.0000 61.0000
13.3415 -2.4819 7.1578 11.0000 76.0000
13.6180 -2.6200 7.3141 9.0000 67.0000
14.9178 -2.9655 8.0195 3.0000 88.0000
14.9340 -3.0641 8.0381 7.0000 50.0000
14.4057 -3.0478 7.7645 6.0000 66.0000
14.3366 -3.1252 7.7376 10.0000 39.0000
14.2152 -3.1902 7.6826 7.0000 54.0000
14.1963 -3.2775 7.6831 10.0000 75.0000
13.1227 -3.1143 7.1140 5.0000 98.0000
13.1093 -3.1962 7.1173 7.0000 55.0000
13.0586 -3.2688 7.1005 3.0000 96.0000
12.2316 -3.1414 6.6627 8.0000 134.0000
12.2078 -3.2153 6.6604 7.0000 39.0000
12.2041 -3.2945 6.6692 12.0000 34.0000
12.2101 -3.3767 6.6836 6.0000 148.0000
12.8985 -3.6526 7.0712 9.0000 60.0000
12.9736 -3.7601 7.1247 9.0000 39.0000
13.0021 -3.8550 7.1531 7.0000 64.0000
13.0756 -3.9643 7.2066 8.0000 52.0000
13.3376 -4.1333 7.3644 8.0000 59.0000
13.4571 -4.2611 7.4444 10.0000 43.0000
13.4753 -4.3580 7.4691 5.0000 40.0000
13.4534 -4.4423 7.4719 8.0000 49.0000
14.4223 -4.8609 8.0246 6.0000 66.0000
14.9379 -5.1371 8.3280 9.0000 82.0000
14.9720 -5.2519 8.3648 6.0000 41.0000
14.2628 -5.1014 7.9870 11.0000 59.0000
14.2679 -5.2021 8.0074 10.0000 44.0000
14.4680 -5.3760 8.1377 8.0000 85.0000
14.8784 -5.6328 8.3871 8.0000 40.0000
14.8526 -5.7275 8.3922 8.0000 47.0000
15.0009 -5.8907 8.4960 10.0000 50.0000
14.7705 -5.9050 8.3862 8.0000 34.0000
14.7053 -5.9838 8.3699 9.0000 39.0000
14.8221 -6.1377 8.4574 8.0000 63.0000
14.7580 -6.2175 8.4425 12.0000 49.0000
14.2347 -6.1000 8.1652 9.0000 90.0000
14.3658 -6.2608 8.2620 11.0000 49.0000
14.3506 -6.3593 8.2754 12.0000 47.0000
14.3411 -6.4607 8.2927 11.0000 39.0000
14.3125 -6.5537 8.2992 11.0000 40.0000
14.2752 -6.6429 8.3010 1.0000 35.0000
6.8766 -3.9480 4.1924 1.0000 38.0000
5.5664 -3.9164 3.6019 1.0000 37.0000
5.6481 -4.0260 3.6703 1.0000 31.0000
5.6793 -4.1011 3.7066 1.0000 37.0000
5.5812 -4.0825 3.6591 1.0000 22.0000
5.5041 -4.0782 3.6252 1.0000 37.0000
5.4804 -4.1129 3.6261 1.0000 34.0000
5.4262 -4.1245 3.6070 1.0000 38.0000
5.3825 -4.1436 3.5949 1.0000 25.0000
5.3284 -4.1543 3.5759 1.0000 29.0000
5.2141 -4.1690 3.5335 1.0000 33.0000
5.1541 -4.1730 3.5103 1.0000 32.0000
5.0750 -4.1608 3.4740 1.0000 28.0000
4.9599 -4.1692 3.4302 1.0000 31.0000
4.9033 -4.1731 3.4088 1.0000 30.0000
4.8910 -4.2147 3.4181 1.0000 31.0000
4.8177 -4.2033 3.3851 1.0000 26.0000
4.5938 -4.2107 3.2999 1.0000 20.0000
4.5484 -4.2207 3.2860 1.0000 48.0000
4.5372 -4.2625 3.2967 1.0000 43.0000
4.4956 -4.2756 3.2855 1.0000 33.0000
3.7901 -4.0749 2.9496 1.0000 29.0000
3.8194 -4.1575 2.9919 1.0000 39.0000
3.7891 -4.1756 2.9882 1.0000 30.0000
3.7540 -4.1882 2.9807 1.0000 33.0000
3.7200 -4.2019 2.9742 1.0000 50.0000
3.6802 -4.2086 2.9631 1.0000 19.0000
3.6034 -4.1721 2.9221 1.0000 44.0000
3.5789 -4.1955 2.9230 1.0000 40.0000
3.5314 -4.1917 2.9054 1.0000 38.0000
3.5085 -4.2166 2.9077 1.0000 27.0000
3.2788 -4.1431 2.8016 1.0000 34.0000
3.2474 -4.1555 2.7965 1.0000 30.0000
3.2126 -4.1634 2.7886 1.0000 34.0000
3.1940 -4.1922 2.7946 1.0000 49.0000
-1.8674 -4.3654 2.5201 1.0000 38.0000
-1.9006 -4.3685 2.5285 1.0000 45.0000
-1.9270 -4.3559 2.5280 1.0000 38.0000
-2.1092 -4.3977 2.5880 1.0000 41.0000
-2.1373 -4.3870 2.5894 1.0000 40.0000
-2.1696 -4.3849 2.5959 1.0000 40.0000
-2.1997 -4.3779 2.5996 1.0000 29.0000
-2.3591 -4.4209 2.6583 1.0000 28.0000
-2.3857 -4.4056 2.6578 1.0000 34.0000
-2.4195 -4.4033 2.6653 1.0000 36.0000
-2.4400 -4.3767 2.6583 1.0000 39.0000
-7.5249 -12.7348 7.7999 1.0000 37.0000
-7.5911 -12.6686 7.7878 6.0000 51.0000
-7.6723 -12.6279 7.7915 4.0000 61.0000
-8.1905 -13.2956 8.2331 6.0000 121.0000
-8.1602 -13.0665 8.1224 6.0000 91.0000
-7.5875 -11.9858 7.4812 4.0000 86.0000
-7.6322 -11.8943 7.4533 7.0000 75.0000
-8.2859 -12.7397 8.0130 3.0000 107.0000
-7.4423 -11.2914 7.1331 7.0000 91.0000
-7.5326 -11.2771 7.1531 6.0000 58.0000
-7.6995 -11.3751 7.2448 7.0000 65.0000
-7.6699 -11.1831 7.1527 3.0000 108.0000
-3.0776 -4.4333 2.8611 1.0000 109.0000
-3.0935 -4.3985 2.8509 1.0000 52.0000
-3.1410 -4.4082 2.8695 1.0000 40.0000
-3.1960 -4.4276 2.8947 1.0000 59.0000
-8.0884 -11.0504 7.2229 5.0000 77.0000
-8.2989 -11.1932 7.3490 7.0000 111.0000
-8.2202 -10.9461 7.2201 7.0000 103.0000
-8.2539 -10.8518 7.1913 2.0000 55.0000
-3.4022 -4.4207 2.9565 1.0000 100.0000
-9.1774 -11.7627 7.8669 4.0000 78.0000
-9.2274 -11.6784 7.8483 4.0000 111.0000
-3.5162 -4.3988 2.9845 1.0000 137.0000
-9.4230 -11.6296 7.8925 5.0000 98.0000
-8.2484 -10.0542 6.8605 3.0000 69.0000
-8.3722 -10.0783 6.9116 7.0000 107.0000
-8.4145 -10.0037 6.8958 6.0000 98.0000
-8.4924 -9.9714 6.9093 4.0000 78.0000
-8.4788 -9.8326 6.8493 4.0000 71.0000
-8.5489 -9.7918 6.8572 5.0000 73.0000
-8.6545 -9.7908 6.8935 1.0000 97.0000
-4.0890 -4.5725 3.2487 1.0000 105.0000
-4.1194 -4.5500 3.2506 1.0000 111.0000
-9.2224 -10.0537 7.1959 5.0000 201.0000
-9.6267 -10.3659 7.4607 5.0000 72.0000
-9.8333 -10.4588 7.5705 10.0000 91.0000
-9.9284 -10.4310 7.5942 10.0000 75.0000
-4.3424 -4.5101 3.3153 1.0000 86.0000
-4.3923 -4.5061 3.3320 1.0000 84.0000
-6.7224 -6.8093 5.0541 2.0000 150.0000
-6.7891 -6.7930 5.0727 5.0000 106.0000
-4.3473 -4.2989 3.2380 4.0000 116.0000
-4.3983 -4.2962 3.2562 9.0000 67.0000
-4.4201 -4.2649 3.2529 11.0000 74.0000
-4.4449 -4.2365 3.2520 11.0000 70.0000
-4.4521 -4.1915 3.2385 10.0000 73.0000
-4.4751 -4.1617 3.2367 10.0000 79.0000
-4.5078 -4.1408 3.2418 9.0000 68.0000
-4.5528 -4.1308 3.2557 7.0000 75.0000
-4.5853 -4.1093 3.2608 8.0000 73.0000
-4.6767 -4.1397 3.3074 3.0000 134.0000
-6.9564 -6.0792 4.8806 4.0000 85.0000
-7.1370 -6.1601 4.9802 3.0000 123.0000
-7.1376 -6.0846 4.9546 6.0000 153.0000
-6.9195 -5.8259 4.7791 4.0000 170.0000
-6.6344 -5.5170 4.5600 4.0000 144.0000
-6.6887 -5.4930 4.5739 6.0000 99.0000
-6.7360 -5.4630 4.5832 7.0000 71.0000
-6.7708 -5.4227 4.5842 7.0000 110.0000
-6.8088 -5.3848 4.5874 4.0000 43.0000
-6.8494 -5.3490 4.5926 4.0000 81.0000
-6.8905 -5.3133 4.5981 5.0000 60.0000
-6.9723 -5.3084 4.6307 4.0000 126.0000
-7.3749 -5.5435 4.8741 5.0000 223.0000
-7.4130 -5.5014 4.8769 3.0000 266.0000
-6.9345 -5.0809 4.5432 4.0000 84.0000
-5.4094 -3.9139 3.5340 5.0000 68.0000
-5.4009 -3.8575 3.5130 8.0000 62.0000
-5.4230 -3.8232 3.5121 8.0000 59.0000
-5.4398 -3.7853 3.5079 9.0000 55.0000
-5.4644 -3.7529 3.5089 8.0000 42.0000
-5.5056 -3.7317 3.5205 7.0000 60.0000
-5.5549 -3.7156 3.5372 8.0000 56.0000
-5.6567 -3.7335 3.5870 5.0000 70.0000
-7.0968 -4.6205 4.4758 3.0000 202.0000
-7.5549 -4.8526 4.7442 3.0000 168.0000
-8.7101 -5.5187 5.4445 3.0000 185.0000
-7.9757 -4.9855 4.9685 4.0000 189.0000
-8.0084 -4.9379 4.9699 4.0000 203.0000
-7.7299 -4.7012 4.7801 5.0000 98.0000
-7.7768 -4.6646 4.7912 5.0000 116.0000
-7.7817 -4.6028 4.7768 5.0000 114.0000
-7.8541 -4.5808 4.8038 6.0000 80.0000
-7.8990 -4.5422 4.8140 5.0000 106.0000
-8.0923 -4.5874 4.9141 6.0000 62.0000
-8.2192 -4.5929 4.9736 7.0000 67.0000
-8.2457 -4.5416 4.9727 5.0000 76.0000
-8.2190 -4.4613 4.9401 6.0000 75.0000
-8.2313 -4.4029 4.9313 7.0000 85.0000
-8.2527 -4.3494 4.9280 8.0000 54.0000
-8.2793 -4.2987 4.9280 6.0000 82.0000
-8.3315 -4.2611 4.9434 7.0000 110.0000
-8.6065 -4.3352 5.0900 5.0000 139.0000
-8.8693 -4.3995 5.2286 3.0000 105.0000
-9.2184 -4.5021 5.4171 5.0000 108.0000
-9.2753 -4.4597 5.4343 3.0000 136.0000
-9.0272 -4.2725 5.2742 4.0000 95.0000
-9.1175 -4.2469 5.3114 5.0000 70.0000
-9.3059 -4.2653 5.4054 5.0000 52.0000
-11.2116 -5.0548 6.4891 3.0000 87.0000
-11.1695 -4.9536 6.4473 12.0000 77.0000
-11.2452 -4.9048 6.4733 3.0000 141.0000
-9.7007 -4.1612 5.5730 3.0000 56.0000
-11.7597 -4.9582 6.7330 7.0000 39.0000
-11.7425 -4.8663 6.7060 7.0000 57.0000
-11.6245 -4.7341 6.6222 5.0000 65.0000
-11.5539 -4.6229 6.5659 6.0000 103.0000
-11.3003 -4.4413 6.4068 5.0000 62.0000
-11.9327 -4.6053 6.7478 4.0000 163.0000
-11.7455 -4.4505 6.6269 6.0000 79.0000
-11.6464 -4.3315 6.5561 5.0000 88.0000
-11.3468 -4.1411 6.3737 3.0000 77.0000
-11.3570 -4.0661 6.3654 5.0000 74.0000
-12.9721 -4.5541 7.2513 2.0000 109.0000
-13.2911 -4.5746 7.4132 6.0000 95.0000
-11.5776 -3.9061 6.4473 4.0000 63.0000
-11.7501 -3.8841 6.5296 4.0000 83.0000
-11.6381 -3.7681 6.4547 3.0000 126.0000
-9.2298 -2.9269 5.1142 5.0000 52.0000
-11.8771 -3.6850 6.5613 8.0000 83.0000
-11.8749 -3.6046 6.5478 6.0000 39.0000
-11.9112 -3.5359 6.5557 5.0000 121.0000
-11.9743 -3.4749 6.5785 8.0000 108.0000
-11.9835 -3.3979 6.5720 11.0000 77.0000
-12.0024 -3.3239 6.5710 6.0000 48.0000
-11.1672 -3.0192 6.1053 8.0000 106.0000
-11.1778 -2.9486 6.1011 7.0000 84.0000
-10.9625 -2.8201 5.9745 7.0000 79.0000
-10.9710 -2.7506 5.9699 6.0000 70.0000
-10.9851 -2.6826 5.9685 7.0000 70.0000
-10.8127 -2.5704 5.8666 8.0000 41.0000
-10.8231 -2.5028 5.8638 7.0000 75.0000
-10.7174 -2.4092 5.7986 3.0000 124.0000
-10.7121 -2.3391 5.7879 5.0000 82.0000
-10.7098 -2.2698 5.7791 7.0000 90.0000
-10.7087 -2.2011 5.7712 8.0000 91.0000
-10.7238 -2.1357 5.7721 7.0000 112.0000
-10.7462 -2.0717 5.7772 7.0000 78.0000
-10.7509 -2.0042 5.7730 6.0000 88.0000
-10.6193 -1.9124 5.6963 7.0000 80.0000
-10.7302 -1.8644 5.7493 5.0000 50.0000
-10.7345 -1.7974 5.7456 5.0000 61.0000
-10.7514 -1.7325 5.7488 7.0000 65.0000
-10.6306 -1.6462 5.6790 6.0000 104.0000
-10.6257 -1.5787 5.6711 5.0000 70.0000
-10.8700 -1.5468 5.7958 5.0000 73.0000
-10.8828 -1.4806 5.7977 7.0000 91.0000
-10.6705 -1.3852 5.6804 8.0000 81.0000
-10.6902 -1.3211 5.6865 9.0000 84.0000
-11.0128 -1.2923 5.8531 9.0000 74.0000
-11.0206 -1.2247 5.8531 10.0000 48.0000
-11.0243 -1.1567 5.8512 8.0000 48.0000
-11.0709 -1.0929 5.8721 8.0000 45.0000
-11.1505 -1.0317 5.9108 2.0000 41.0000
-15.1798 1.8704 8.0642 3.0000 38.0000
-15.1321 1.9589 8.0451 1.0000 31.0000
-16.1109 2.1865 8.5709 3.0000 52.0000
-16.0393 2.2770 8.5402 4.0000 57.0000
-15.8482 2.3491 8.4462 3.0000 34.0000
-14.8363 2.2920 7.9158 3.0000 37.0000
-16.5791 1.8037 8.5510 1.0000 34.0000
-16.5642 1.9050 8.5492 9.0000 22.0000
-16.5159 2.0022 8.5305 10.0000 40.0000
-16.4247 2.0935 8.4900 11.0000 40.0000
-16.3807 2.1901 8.4741 12.0000 57.0000
-16.3229 2.2844 8.4513 5.0000 37.0000
-16.3632 2.3925 8.4795 5.0000 65.0000
-17.0312 2.5971 8.8328 6.0000 62.0000
-17.0642 2.7093 8.8583 7.0000 63.0000
-17.1035 2.8233 8.8874 6.0000 36.0000
-17.0858 2.9282 8.8874 7.0000 81.0000
-15.1188 2.6865 7.8755 3.0000 101.0000
-17.0355 3.1352 8.8806 6.0000 34.0000
-17.0658 3.2492 8.9066 3.0000 69.0000
-15.2494 3.0003 7.9706 4.0000 72.0000
-15.2097 3.0895 7.9597 3.0000 95.0000
-13.8537 2.9026 7.2613 4.0000 61.0000
-14.6685 3.1675 7.6970 3.0000 77.0000
-19.9852 4.4446 10.4921 6.0000 55.0000
-14.8594 3.4001 7.8181 5.0000 79.0000
-14.4162 3.3918 7.5964 2.0000 88.0000
-14.1779 3.4277 7.4821 3.0000 85.0000
-15.0976 3.7483 7.9779 3.0000 86.0000
-15.1606 3.8629 8.0234 9.0000 39.0000
-15.1495 3.9592 8.0302 6.0000 70.0000
-15.1138 4.0491 8.0243 4.0000 90.0000
-15.0148 4.1215 7.9852 5.0000 75.0000
-17.3660 4.8819 9.2475 4.0000 95.0000
-17.3255 4.9854 9.2421 5.0000 87.0000
-17.0486 5.0192 9.1110 5.0000 79.0000
-14.9262 4.4939 7.9943 8.0000 68.0000
-14.9392 4.5979 8.0161 16.0000 66.0000
-17.2412 5.4227 9.2653 7.0000 101.0000
-17.3153 5.5630 9.3231 6.0000 75.0000
-17.4450 5.7230 9.4114 5.0000 61.0000
-14.6488 4.9052 7.9228 4.0000 65.0000
-15.4845 5.2910 8.3908 4.0000 88.0000
-15.5644 5.4252 8.4518 6.0000 69.0000
-15.5325 5.5212 8.4527 17.0000 49.0000
-15.5310 5.6283 8.4704 9.0000 70.0000
-14.4597 5.3405 7.9055 4.0000 88.0000
-14.8391 5.5844 8.1308 3.0000 88.0000
-14.9608 5.7353 8.2164 2.0000 97.0000
-14.1010 5.5051 7.7639 1.0000 74.0000
-14.0553 5.5869 7.7575 1.0000 88.0000
-15.9471 6.4526 8.8201 4.0000 117.0000
-15.9097 6.5514 8.8214 3.0000 114.0000
-13.8450 5.8006 7.6993 5.0000 105.0000
-13.7019 5.8397 7.6396 7.0000 88.0000
-14.8846 6.4521 8.3189 6.0000 59.0000
-13.7400 6.0562 7.7016 12.0000 54.0000
-13.7188 6.1477 7.7107 4.0000 66.0000
-13.6833 6.2329 7.7120 4.0000 92.0000
-13.4727 6.2370 7.6151 5.0000 95.0000
-13.2690 6.2419 7.5217 4.0000 72.0000
-14.0209 6.7010 7.9697 5.0000 56.0000
-13.9467 6.7710 7.9510 5.0000 96.0000
-15.6944 7.7391 8.9712 6.0000 47.0000
-15.6458 7.8348 8.9707 5.0000 80.0000
-14.4474 7.3458 8.3111 6.0000 66.0000
-14.4962 7.4829 8.3653 3.0000 106.0000
-15.5383 8.1421 8.9935 7.0000 77.0000
-15.4708 8.2281 8.9835 3.0000 96.0000
-12.8831 6.9533 7.5094 4.0000 88.0000
-15.4147 8.4426 9.0104 5.0000 85.0000
-15.3689 8.5405 9.0140 3.0000 64.0000
-14.3824 8.1081 8.4659 2.0000 34.0000
-15.2268 8.8322 9.0245 3.0000 55.0000
-15.1907 8.9363 9.0354 6.0000 52.0000
-13.8989 8.5244 8.3607 1.0000 24.0000
-13.8380 8.6044 8.3557 8.0000 33.0000
-13.7526 8.6687 8.3362 1.0000 29.0000
-6.3017 5.0847 4.1644 1.0000 43.0000
-6.2939 5.1424 4.1799 1.0000 43.0000
-6.2197 5.1458 4.1516 1.0000 48.0000
-6.0733 5.0878 4.0752 3.0000 44.0000
-6.0339 5.1180 4.0697 3.0000 52.0000
-5.8841 5.0534 3.9900 1.0000 45.0000
-5.8477 5.0847 3.9864 1.0000 44.0000
-5.9613 5.2482 4.0852 5.0000 62.0000
-5.9888 5.3380 4.1261 11.0000 82.0000
-5.8126 5.2452 4.0274 12.0000 89.0000
-5.9295 5.4171 4.1307 14.0000 80.0000
-5.9693 5.5211 4.1817 7.0000 53.0000
-5.8385 5.4670 4.1139 6.0000 191.0000
-5.9386 5.6295 4.2081 7.0000 84.0000
-5.1993 4.9894 3.7087 9.0000 64.0000
-5.1852 5.0374 3.7205 11.0000 93.0000
-5.2291 5.1428 3.7742 7.0000 167.0000
-5.2529 5.2300 3.8143 10.0000 68.0000
-5.2346 5.2761 3.8243 12.0000 97.0000
-5.1946 5.3005 3.8189 9.0000 76.0000
-5.2053 5.3770 3.8507 10.0000 105.0000
-5.3328 5.5769 3.9695 11.0000 96.0000
-5.0687 5.3661 3.7984 12.0000 144.0000
-5.4540 5.8457 4.1120 7.0000 282.0000
-5.4283 5.8902 4.1198 16.0000 83.0000
-5.0709 5.5704 3.8758 10.0000 229.0000
-5.0247 5.5882 3.8667 12.0000 91.0000
-5.1931 5.8473 4.0228 13.0000 110.0000
-5.1395 5.8589 4.0091 12.0000 117.0000
-4.8359 5.5814 3.8002 8.0000 198.0000
-4.7570 5.5589 3.7651 11.0000 81.0000
-4.7360 5.6036 3.7756 12.0000 90.0000
-4.5019 5.3933 3.6163 14.0000 151.0000
-5.3277 6.4632 4.3069 7.0000 62.0000
-5.4245 6.6636 4.4175 12.0000 67.0000
-5.3991 6.7162 4.4302 11.0000 145.0000
-4.9156 6.1919 4.0665 15.0000 82.0000
-4.8451 6.1806 4.0397 13.0000 97.0000
-4.8136 6.2187 4.0451 14.0000 65.0000
-4.9813 6.5177 4.2186 11.0000 157.0000
-5.0275 6.6626 4.2918 10.0000 89.0000
-5.0461 6.7733 4.3428 9.0000 67.0000
-4.8969 6.6578 4.2500 11.0000 72.0000
-4.8533 6.6841 4.2477 14.0000 66.0000
-4.7355 6.6066 4.1803 10.0000 147.0000
-4.6645 6.5927 4.1535 11.0000 116.0000
-4.7004 6.7307 4.2217 9.0000 204.0000
-4.8823 7.0834 4.4230 10.0000 180.0000
-4.6455 6.8291 4.2472 12.0000 94.0000
-4.4854 6.6815 4.1389 11.0000 156.0000
-4.4222 6.6755 4.1184 10.0000 169.0000
-4.2653 6.5251 4.0101 6.0000 72.0000
-3.9806 6.1717 3.7793 8.0000 89.0000
-4.2088 6.6145 4.0328 7.0000 240.0000
-4.0981 6.5286 3.9654 13.0000 141.0000
-3.8293 6.1841 3.7433 11.0000 175.0000
-3.5574 5.8245 3.5139 13.0000 112.0000
-3.4835 5.7829 3.4761 14.0000 91.0000
-3.3211 5.5906 3.3491 13.0000 94.0000
-3.2742 5.5893 3.3363 14.0000 57.0000
-3.2883 5.6934 3.3859 10.0000 167.0000
-3.3317 5.8512 3.4670 12.0000 68.0000
-3.2496 5.7892 3.4187 13.0000 102.0000
-3.1489 5.6914 3.3500 10.0000 108.0000
-3.0986 5.6825 3.3336 8.0000 110.0000
-3.4357 6.3940 3.7356 9.0000 422.0000
-3.1319 5.9152 3.4465 9.0000 159.0000
-2.5370 4.8630 2.8287 6.0000 113.0000
-2.5169 4.8974 2.8397 12.0000 110.0000
-2.4944 4.9279 2.8483 14.0000 94.0000
-2.4594 4.9335 2.8428 11.0000 78.0000
-3.0114 6.1356 3.5189 10.0000 76.0000
-3.0840 6.3825 3.6486 6.0000 138.0000
-2.4282 5.1042 2.9143 7.0000 97.0000
-2.3387 4.9948 2.8442 13.0000 102.0000
-2.3072 5.0075 2.8433 7.0000 127.0000
-3.0021 6.6233 3.7424 10.0000 122.0000
-2.9179 6.5440 3.6878 14.0000 140.0000
-2.2544 5.1396 2.8938 6.0000 158.0000
-2.2207 5.1484 2.8911 12.0000 98.0000
-2.8105 6.6286 3.7055 13.0000 107.0000
-2.7708 6.6482 3.7069 13.0000 66.0000
-2.7742 6.7730 3.7665 4.0000 111.0000
-3.2768 8.1430 4.5122 6.0000 196.0000
-2.5875 6.5449 3.6227 8.0000 132.0000
-1.8303 4.7129 2.6093 10.0000 78.0000
-1.7978 4.7149 2.6043 9.0000 100.0000
-1.8104 4.8367 2.6648 10.0000 104.0000
-1.8242 4.9664 2.7295 6.0000 225.0000
-1.7970 4.9867 2.7345 7.0000 218.0000
-1.7694 5.0061 2.7390 10.0000 110.0000
-1.7447 5.0345 2.7486 10.0000 97.0000
-1.7287 5.0890 2.7723 10.0000 284.0000
-1.8978 5.7019 3.0969 10.0000 132.0000
-2.1178 6.4965 3.5180 9.0000 354.0000
-1.8598 5.8257 3.1510 5.0000 66.0000
-1.8546 5.9347 3.2034 7.0000 384.0000
-1.6126 5.2733 2.8438 9.0000 155.0000
-1.5792 5.2797 2.8419 9.0000 64.0000
-1.5488 5.2961 2.8456 9.0000 107.0000
-1.5351 5.3714 2.8806 9.0000 135.0000
-1.5808 5.6629 3.0304 13.0000 114.0000
-1.5619 5.7309 3.0614 8.0000 82.0000
-1.7252 6.4873 3.4565 9.0000 199.0000
-1.6132 6.2194 3.3095 14.0000 123.0000
-1.6376 6.4769 3.4401 9.0000 89.0000
-1.3465 5.4658 2.9025 2.0000 274.0000
-1.5542 6.4809 3.4319 12.0000 116.0000
-1.5070 6.4583 3.4151 12.0000 78.0000
-1.4321 6.3120 3.3336 13.0000 68.0000
-1.3811 6.2650 3.3044 13.0000 179.0000
-1.2218 5.7082 3.0090 9.0000 120.0000
-1.1708 5.6389 2.9689 8.0000 295.0000
-1.1315 5.6224 2.9566 13.0000 159.0000
-1.1148 5.7210 3.0044 5.0000 68.0000
-1.3119 6.9615 3.6463 7.0000 384.0000
-1.0485 5.7562 3.0158 6.0000 342.0000
-1.0090 5.7388 3.0035 10.0000 158.0000
-0.9714 5.7309 2.9963 10.0000 61.0000
-0.9417 5.7701 3.0136 7.0000 73.0000
-1.0654 6.7918 3.5393 6.0000 67.0000
-0.8332 5.5312 2.8843 12.0000 70.0000
-0.9581 6.6387 3.4538 8.0000 98.0000
-0.9406 6.8129 3.5407 10.0000 59.0000
-0.8861 6.7223 3.4911 9.0000 185.0000
-0.9429 7.5103 3.8944 13.0000 182.0000
-0.8940 7.4921 3.8821 10.0000 113.0000
-0.8456 7.4762 3.8712 10.0000 160.0000
-0.8111 7.5875 3.9258 10.0000 97.0000
-0.7697 7.6437 3.9522 7.0000 67.0000
-0.5547 5.8666 3.0372 9.0000 62.0000
-0.5182 5.8637 3.0340 10.0000 74.0000
-0.6352 7.7347 3.9923 12.0000 111.0000
-0.5878 7.7385 3.9923 12.0000 115.0000
-0.5230 7.4932 3.8648 8.0000 67.0000
-0.4760 7.4803 3.8566 9.0000 99.0000
-0.4319 7.5151 3.8730 8.0000 120.0000
-0.3882 7.5656 3.8976 13.0000 90.0000
-0.3312 7.3321 3.7770 10.0000 102.0000
-0.2886 7.3972 3.8093 8.0000 84.0000
-0.2399 7.2965 3.7569 5.0000 79.0000
-0.3024 11.3387 5.8237 11.0000 59.0000
-0.2341 11.4053 5.8569 7.0000 57.0000
-0.1760 12.2372 6.2817 3.0000 124.0000
-0.0575 6.8924 3.5485 4.0000 91.0000
-0.0153 6.9799 3.5931 6.0000 75.0000
0.0275 6.9772 3.5917 6.0000 88.0000
0.0703 6.9760 3.5912 8.0000 132.0000
0.1114 6.8748 3.5398 12.0000 85.0000
0.1513 6.7734 3.4884 13.0000 65.0000
0.1947 6.8364 3.5211 14.0000 68.0000
0.2369 6.8422 3.5248 12.0000 67.0000
0.2769 6.7917 3.4997 9.0000 77.0000
0.3172 6.7614 3.4852 8.0000 100.0000
0.3598 6.7789 3.4952 11.0000 114.0000
0.4042 6.8255 3.5202 9.0000 87.0000
0.4419 6.7580 3.4870 13.0000 83.0000
0.4836 6.7587 3.4888 13.0000 61.0000
0.5223 6.7201 3.4706 12.0000 73.0000
0.5617 6.6955 3.4597 12.0000 66.0000
0.6001 6.6627 3.4447 11.0000 85.0000
0.6301 6.5454 3.3864 11.0000 58.0000
0.6634 6.4750 3.3522 11.0000 52.0000
0.7042 6.4805 3.3573 13.0000 84.0000
0.7465 6.4982 3.3686 11.0000 94.0000
1.3488 11.1295 5.7563 12.0000 114.0000
1.4074 11.0459 5.7176 10.0000 132.0000
1.4715 11.0097 5.7035 9.0000 59.0000
1.5177 10.8480 5.6248 12.0000 78.0000
1.5869 10.8569 5.6343 10.0000 54.0000
1.6483 10.8127 5.6166 5.0000 47.0000
3.6882 23.2258 12.0481 10.0000 56.0000
3.8476 23.3055 12.1014 11.0000 37.0000
4.0175 23.4385 12.1829 8.0000 51.0000
4.1760 23.4967 12.2261 4.0000 58.0000
4.6210 25.1046 13.0756 11.0000 50.0000
4.7361 24.8720 12.9695 11.0000 40.0000
4.8097 24.4415 12.7606 12.0000 56.0000
4.9682 24.4542 12.7829 8.0000 50.0000
5.1825 24.7300 12.9431 4.0000 30.0000
5.3392 24.7213 12.9554 7.0000 51.0000
5.5324 24.8749 13.0533 3.0000 34.0000
5.7153 24.9733 13.1229 9.0000 26.0000
2.0028 7.6664 4.0756 1.0000 46.0000
2.0307 7.5826 4.0378 9.0000 60.0000
2.0517 7.4772 3.9887 13.0000 64.0000
2.0829 7.4122 3.9609 17.0000 65.0000
2.1283 7.3993 3.9609 19.0000 63.0000
2.1732 7.3844 3.9600 20.0000 47.0000
2.2197 7.3752 3.9623 18.0000 49.0000
2.2712 7.3819 3.9732 16.0000 73.0000
2.3250 7.3950 3.9878 11.0000 78.0000
2.3780 7.4043 4.0005 3.0000 45.0000
4.4906 9.3971 5.3494 1.0000 28.0000
4.5731 9.4206 5.3785 5.0000 51.0000
4.6281 9.3868 5.3753 9.0000 56.0000
4.6888 9.3646 5.3789 10.0000 39.0000
4.7667 9.3761 5.4022 4.0000 41.0000
4.8626 9.4210 5.4450 12.0000 63.0000
4.8794 9.3130 5.3999 7.0000 68.0000
4.7708 8.9716 5.2196 9.0000 87.0000
4.8203 8.9319 5.2137 10.0000 147.0000
4.8707 8.8944 5.2091 4.0000 143.0000
5.2012 9.3608 5.4996 3.0000 131.0000
4.9791 8.8332 5.2087 2.0000 72.0000
4.4165 7.7243 4.5736 1.0000 42.0000
4.5107 7.7779 4.6214 4.0000 80.0000
5.5521 9.4391 5.6234 6.0000 110.0000
5.6209 9.4232 5.6343 7.0000 73.0000
5.6703 9.3748 5.6261 4.0000 178.0000
5.5178 8.9976 5.4208 4.0000 76.0000
5.6998 9.1677 5.5437 3.0000 88.0000
5.7721 9.1582 5.5592 5.0000 135.0000
5.9931 9.3807 5.7158 5.0000 211.0000
4.7277 7.3013 4.4717 4.0000 159.0000
5.4486 8.3023 5.1017 3.0000 192.0000
5.4852 8.2472 5.0885 4.0000 130.0000
5.5511 8.2363 5.1026 6.0000 64.0000
4.9371 7.2294 4.5003 6.0000 98.0000
6.0739 8.7774 5.4818 7.0000 164.0000
5.1512 7.3476 4.6123 7.0000 73.0000
5.1709 7.2803 4.5900 10.0000 69.0000
5.2456 7.2904 4.6164 7.0000 48.0000
5.9538 8.1681 5.1923 13.0000 103.0000
6.0070 8.1358 5.1950 11.0000 116.0000
6.5395 8.7440 5.6070 5.0000 172.0000
6.5231 8.6114 5.5478 9.0000 74.0000
6.5775 8.5733 5.5492 9.0000 62.0000
6.6830 8.6010 5.5934 7.0000 79.0000
6.4382 8.1820 5.3475 4.0000 47.0000
5.3961 6.7722 4.4516 1.0000 42.0000
5.4767 6.7874 4.4835 1.0000 40.0000
5.5003 6.7316 4.4689 1.0000 36.0000
6.4566 7.8035 5.2028 1.0000 32.0000
6.4597 7.7105 5.1673 4.0000 57.0000
6.3911 7.5342 5.0758 7.0000 103.0000
6.0241 7.0140 4.7516 7.0000 138.0000
6.0963 7.0105 4.7744 6.0000 115.0000
6.4934 7.3752 5.0484 8.0000 64.0000
6.5243 7.3193 5.0375 4.0000 42.0000
6.5793 7.2903 5.0453 1.0000 43.0000
19.1007 14.2269 12.2015 6.0000 44.0000
19.1360 14.0714 12.1688 11.0000 31.0000
19.2587 13.9804 12.1920 10.0000 18.0000
19.3883 13.8936 12.2198 9.0000 40.0000
19.5909 13.8577 12.2935 1.0000 40.0000
20.2064 14.1077 12.6245 6.0000 48.0000
20.2786 13.9739 12.6158 5.0000 48.0000
19.1697 13.0371 11.8774 5.0000 34.0000
19.9828 13.4114 12.3290 9.0000 28.0000
20.0588 13.2846 12.3254 4.0000 49.0000
20.1466 13.1657 12.3295 1.0000 56.0000
19.2796 12.4310 11.7531 3.0000 33.0000
19.3405 12.3030 11.7440 7.0000 69.0000
19.3334 12.1325 11.6944 2.0000 59.0000
19.3416 11.9729 11.6548 8.0000 44.0000
14.5336 8.8741 8.7308 2.0000 68.0000
14.4542 8.7044 8.6512 6.0000 62.0000
14.6100 8.6764 8.7122 1.0000 37.0000
14.6514 8.5799 8.7053 1.0000 38.0000
14.6999 8.4876 8.7031 6.0000 70.0000
14.7602 8.4021 8.7081 1.0000 64.0000
14.7688 8.2874 8.6830 7.0000 44.0000
14.8178 8.1958 8.6821 2.0000 64.0000
15.4948 8.4464 9.0472 5.0000 65.0000
16.0186 8.6048 9.3213 4.0000 44.0000
14.2988 7.5685 8.2961 7.0000 36.0000
14.4760 7.5489 8.3717 9.0000 65.0000
14.4833 7.4400 8.3494 7.0000 67.0000
14.5795 7.3767 8.3785 7.0000 60.0000
14.6221 7.2860 8.3771 5.0000 95.0000
14.5842 7.1557 8.3302 2.0000 75.0000
14.5252 7.0165 8.2720 4.0000 45.0000
14.5776 6.9319 8.2774 3.0000 68.0000
14.6433 6.8532 8.2906 2.0000 78.0000
14.6527 6.7483 8.2724 3.0000 63.0000
14.6371 6.6326 8.2406 4.0000 49.0000
14.6482 6.5296 8.2242 5.0000 81.0000
14.7027 6.4460 8.2324 9.0000 48.0000
14.6594 6.3201 8.1864 7.0000 79.0000
15.2217 6.4520 8.4773 6.0000 66.0000
15.4073 6.4195 8.5583 3.0000 65.0000
15.4662 6.3329 8.5692 3.0000 57.0000
16.4324 6.6110 9.0805 2.0000 76.0000
16.3758 6.4718 9.0272 1.0000 50.0000
22.2224 8.6245 12.2120 3.0000 37.0000
17.2311 6.5664 9.4524 5.0000 53.0000
17.2711 6.4605 9.4524 5.0000 66.0000
16.5172 6.0633 9.0204 6.0000 57.0000
16.3798 5.8991 8.9257 1.0000 54.0000
20.4397 7.2195 11.1076 5.0000 65.0000
20.6847 7.1636 11.2164 3.0000 43.0000
17.1660 5.7103 9.2739 5.0000 55.0000
17.2693 5.6272 9.3108 2.0000 53.0000
17.2831 5.5147 9.2999 5.0000 64.0000
17.3540 5.4202 9.3199 3.0000 57.0000
17.4304 5.3269 9.3431 5.0000 67.0000
20.9715 6.2683 11.2155 11.0000 61.0000
17.4662 5.1043 9.3281 2.0000 63.0000
20.3037 5.7983 10.8204 4.0000 55.0000
22.2455 6.2053 11.8323 4.0000 41.0000
22.2530 6.0605 11.8164 4.0000 38.0000
17.5441 4.6629 9.3058 3.0000 60.0000
23.1376 5.5450 12.1893 3.0000 74.0000
20.2438 4.7205 10.6524 8.0000 56.0000
20.2541 4.5921 10.6428 5.0000 49.0000
20.1593 4.4407 10.5786 3.0000 62.0000
17.4278 3.7272 9.1365 7.0000 53.0000
17.4704 3.6244 9.1469 7.0000 56.0000
20.5563 4.1329 10.7448 2.0000 99.0000
17.8492 3.4750 9.3217 10.0000 74.0000
18.0959 3.4080 9.4392 4.0000 64.0000
18.5379 3.3735 9.6581 3.0000 81.0000
16.9244 2.9729 8.8100 4.0000 73.0000
16.8423 2.8520 8.7582 9.0000 30.0000
16.9684 2.7664 8.8146 2.0000 83.0000
16.9956 2.6639 8.8201 1.0000 95.0000
18.8906 2.8421 9.7915 3.0000 65.0000
18.8592 2.7191 9.7665 4.0000 95.0000
17.2111 2.3739 8.9075 4.0000 70.0000
17.1556 2.2591 8.8715 7.0000 43.0000
17.2319 2.1616 8.9038 4.0000 87.0000
17.9716 2.1424 9.2780 4.0000 64.0000
17.7137 2.0016 9.1387 5.0000 87.0000
17.7371 1.8941 9.1446 4.0000 75.0000
17.6412 1.7744 9.0896 8.0000 53.0000
17.4311 1.6453 8.9762 10.0000 63.0000
17.4382 1.5381 8.9748 5.0000 91.0000
19.0260 1.5604 9.7847 6.0000 54.0000
13.7197 1.0409 7.0592 4.0000 92.0000
13.6859 0.9540 7.0387 13.0000 41.0000
13.7688 0.8749 7.0783 12.0000 40.0000
13.9215 0.7988 7.1539 10.0000 59.0000
14.1662 0.7257 7.2768 14.0000 56.0000
14.1384 0.6373 7.2604 10.0000 58.0000
14.1589 0.5512 7.2691 8.0000 82.0000
14.1051 0.4624 7.2399 3.0000 64.0000
14.1433 0.3768 7.2582 6.0000 57.0000
14.1613 0.2904 7.2663 9.0000 55.0000
14.1637 0.2035 7.2668 12.0000 41.0000
14.1585 0.1165 7.2636 9.0000 50.0000
14.1652 0.0296 7.2668 8.0000 67.0000
13.9042 -0.0562 7.1334 2.0000 76.0000
14.6461 -0.1491 7.5131 5.0000 51.0000
13.8019 -0.2252 7.0820 1.0000 48.0000
13.7379 -0.3084 7.0501 9.0000 43.0000
13.7767 -0.3939 7.0711 6.0000 47.0000
11.9392 -0.4145 6.1324 8.0000 40.0000
11.9071 -0.4866 6.1173 10.0000 76.0000
12.2187 -0.5744 6.2785 11.0000 67.0000
12.0309 -0.6396 6.1843 10.0000 63.0000
11.9485 -0.7088 6.1442 12.0000 33.0000
11.8995 -0.7791 6.1214 11.0000 49.0000
11.9789 -0.8582 6.1647 10.0000 46.0000
12.1119 -0.9425 6.2357 11.0000 57.0000
12.1564 -1.0210 6.2616 5.0000 58.0000
14.4014 -1.2989 7.4175 5.0000 69.0000
17.2009 -1.6581 8.8597 7.0000 78.0000
15.2949 -1.5690 7.8855 7.0000 85.0000
15.2461 -1.6586 7.8654 7.0000 85.0000
13.8168 -1.5888 7.1352 9.0000 51.0000
12.2627 -1.4862 6.3399 5.0000 97.0000
12.2383 -1.5595 6.3322 15.0000 62.0000
12.2126 -1.6325 6.3240 11.0000 77.0000
13.8178 -1.9336 7.1580 5.0000 135.0000
14.8293 -2.1681 7.6870 4.0000 93.0000
13.9488 -2.1268 7.2386 7.0000 55.0000
13.6171 -2.1618 7.0738 10.0000 58.0000
13.4350 -2.2174 6.9864 9.0000 99.0000
13.7660 -2.3589 7.1653 8.0000 60.0000
13.3980 -2.3806 6.9818 10.0000 62.0000
13.4330 -2.4719 7.0078 12.0000 70.0000
13.7473 -2.6171 7.1794 10.0000 56.0000
14.7051 -2.8931 7.6870 6.0000 55.0000
14.0475 -2.8533 7.3533 10.0000 121.0000
14.3190 -3.0001 7.5044 9.0000 77.0000
14.4361 -3.1173 7.5755 6.0000 112.0000
14.3733 -3.1961 7.5527 5.0000 56.0000
14.2536 -3.2614 7.5003 7.0000 68.0000
14.9492 -3.5173 7.8764 4.0000 114.0000
12.1433 -2.9356 6.4119 4.0000 148.0000
12.1622 -3.0193 6.4315 8.0000 74.0000
12.1641 -3.0991 6.4424 9.0000 39.0000
12.2181 -3.1928 6.4811 11.0000 58.0000
12.1089 -3.2438 6.4337 11.0000 57.0000
12.1943 -3.3470 6.4897 10.0000 68.0000
12.1976 -3.4285 6.5025 9.0000 92.0000
13.0482 -3.7543 6.9664 7.0000 63.0000
13.0334 -3.8368 6.9709 9.0000 39.0000
13.0983 -3.9434 7.0182 10.0000 38.0000
13.1122 -4.0355 7.0387 9.0000 50.0000
13.5254 -4.2537 7.2736 10.0000 61.0000
13.5347 -4.3481 7.2928 11.0000 46.0000
13.5263 -4.4371 7.3028 10.0000 77.0000
14.4233 -4.8297 7.8012 6.0000 65.0000
15.0843 -5.1543 8.1745 8.0000 80.0000
14.3201 -4.9914 7.7780 11.0000 50.0000
14.3169 -5.0890 7.7931 13.0000 53.0000
14.3591 -5.2035 7.8331 10.0000 42.0000
14.5499 -5.3739 7.9547 8.0000 70.0000
15.0191 -5.6522 8.2292 8.0000 53.0000
15.0165 -5.7567 8.2469 7.0000 48.0000
14.9801 -5.8484 8.2465 7.0000 48.0000
14.9026 -5.9237 8.2237 10.0000 50.0000
14.8750 -6.0187 8.2287 9.0000 56.0000
14.5151 -5.9770 8.0503 8.0000 61.0000
14.3090 -5.9950 7.9565 11.0000 81.0000
14.3506 -6.1162 8.0002 10.0000 65.0000
14.3463 -6.2187 8.0189 12.0000 65.0000
14.2989 -6.3026 8.0138 11.0000 35.0000
14.1754 -6.3524 7.9665 12.0000 81.0000
14.2399 -6.4865 8.0248 5.0000 50.0000
14.2459 -6.5951 8.0507 8.0000 48.0000
14.2454 -6.7013 8.0735 4.0000 45.0000
14.2603 -6.8155 8.1053 10.0000 39.0000
14.2030 -6.8955 8.0967 1.0000 22.0000
7.3256 -3.8378 4.2527 1.0000 33.0000
5.8603 -3.8971 3.6227 1.0000 29.0000
6.0023 -4.0450 3.7251 1.0000 44.0000
6.0340 -4.1204 3.7601 1.0000 31.0000
5.8908 -4.0758 3.6868 1.0000 26.0000
5.7687 -4.0438 3.6263 1.0000 37.0000
5.7779 -4.1034 3.6477 1.0000 27.0000
5.7584 -4.1429 3.6513 1.0000 45.0000
5.6738 -4.1352 3.6140 1.0000 44.0000
5.5639 -4.1075 3.5603 1.0000 52.0000
5.5179 -4.1261 3.5471 1.0000 20.0000
5.5003 -4.1658 3.5521 1.0000 23.0000
5.2119 -4.1524 3.4315 1.0000 42.0000
5.1960 -4.1922 3.4378 1.0000 53.0000
5.1136 -4.1778 3.4005 1.0000 63.0000
5.0735 -4.1972 3.3909 1.0000 40.0000
5.0627 -4.2408 3.4010 1.0000 32.0000
4.8541 -4.2205 3.3131 1.0000 30.0000
4.8695 -4.2867 3.3413 1.0000 43.0000
4.8491 -4.3218 3.3454 1.0000 51.0000
4.7425 -4.2793 3.2903 1.0000 36.0000
4.2466 -4.1761 3.0695 1.0000 39.0000
4.1414 -4.1229 3.0122 1.0000 28.0000
4.0947 -4.1268 2.9967 1.0000 45.0000
3.9759 -4.0564 2.9284 1.0000 25.0000
3.9094 -4.0378 2.8979 1.0000 47.0000
3.9811 -4.1628 2.9694 1.0000 31.0000
3.9445 -4.1755 2.9612 1.0000 45.0000
3.8727 -4.1501 2.9266 1.0000 41.0000
3.8357 -4.1614 2.9180 1.0000 39.0000
3.7190 -4.0847 2.8488 1.0000 32.0000
3.6197 -4.1257 2.8305 1.0000 29.0000
3.6013 -4.1559 2.8360 1.0000 28.0000
3.5711 -4.1725 2.8324 1.0000 48.0000
3.5632 -4.2155 2.8465 1.0000 29.0000
-2.1524 -4.3672 2.5137 1.0000 28.0000
-2.1811 -4.3579 2.5160 1.0000 40.0000
-2.2139 -4.3564 2.5228 1.0000 36.0000
-2.3772 -4.4065 2.5843 1.0000 41.0000
-2.3897 -4.3653 2.5688 1.0000 49.0000
-2.4181 -4.3536 2.5706 1.0000 36.0000
-7.4904 -12.9140 7.6574 2.0000 31.0000
-7.5565 -12.8456 7.6442 5.0000 50.0000
-2.6272 -4.4059 2.6471 1.0000 48.0000
-2.6514 -4.3851 2.6444 1.0000 83.0000
-7.7623 -12.6565 7.6155 5.0000 69.0000
-7.8976 -12.7016 7.6715 9.0000 101.0000
-7.9104 -12.5497 7.6091 9.0000 77.0000
-7.9791 -12.4882 7.6014 8.0000 58.0000
-7.8038 -12.0504 7.3647 6.0000 69.0000
-7.8708 -11.9919 7.3583 5.0000 84.0000
-7.6163 -11.4504 7.0556 8.0000 84.0000
-7.6052 -11.2831 6.9814 5.0000 161.0000
-7.9983 -11.7104 7.2750 9.0000 98.0000
-7.8303 -11.3149 7.0597 9.0000 60.0000
-7.9047 -11.2739 7.0642 10.0000 72.0000
-7.7494 -10.9094 6.8662 6.0000 131.0000
-7.9249 -11.0127 6.9613 8.0000 81.0000
-7.8837 -10.8150 6.8671 8.0000 65.0000
-7.9457 -10.7607 6.8635 9.0000 75.0000
-3.2925 -4.4035 2.8356 1.0000 99.0000
-3.3178 -4.3811 2.8342 1.0000 45.0000
-3.4108 -4.4469 2.8897 1.0000 52.0000
-3.4533 -4.4455 2.9025 1.0000 78.0000
-8.5342 -10.8449 7.0802 6.0000 172.0000
-8.1971 -10.2861 6.7492 4.0000 110.0000
-8.2528 -10.2267 6.7433 3.0000 111.0000
-3.6318 -4.4456 2.9594 1.0000 86.0000
-9.2928 -11.2303 7.4771 4.0000 98.0000
-9.3695 -11.1826 7.4835 4.0000 103.0000
-8.8025 -10.3761 6.9814 3.0000 140.0000
-8.7158 -10.1470 6.8635 7.0000 103.0000
-8.7095 -10.0147 6.8102 8.0000 66.0000
-8.7849 -9.9771 6.8211 7.0000 109.0000
-8.7719 -9.8400 6.7642 7.0000 108.0000
-9.6668 -10.7106 7.4011 3.0000 171.0000
-9.7167 -10.6340 7.3893 5.0000 100.0000
-9.7691 -10.5604 7.3797 9.0000 75.0000
-9.8678 -10.5367 7.4052 4.0000 70.0000
-4.3307 -4.5689 3.2430 1.0000 70.0000
-4.3999 -4.5853 3.2735 1.0000 122.0000
-10.1506 -10.4465 7.4717 6.0000 89.0000
-10.5236 -10.6982 7.6970 5.0000 125.0000
-8.9089 -8.9465 6.4797 3.0000 90.0000
-4.4985 -4.4634 3.2644 1.0000 214.0000
-4.4526 -4.3640 3.2120 9.0000 85.0000
-4.4525 -4.3106 3.1929 10.0000 76.0000
-4.4557 -4.2611 3.1765 10.0000 67.0000
-4.4493 -4.2031 3.1538 9.0000 64.0000
-4.4777 -4.1781 3.1556 11.0000 72.0000
-4.5039 -4.1512 3.1560 11.0000 58.0000
-4.5345 -4.1283 3.1597 11.0000 77.0000
-4.5684 -4.1081 3.1656 11.0000 82.0000
-4.6388 -4.1202 3.1966 8.0000 65.0000
-6.9963 -6.1369 4.7826 6.0000 88.0000
-7.0877 -6.1404 4.8190 2.0000 49.0000
-7.0853 -6.0627 4.7922 4.0000 87.0000
-7.2088 -6.0921 4.8500 7.0000 95.0000
-7.1790 -5.9918 4.8054 5.0000 132.0000
-7.1387 -5.8843 4.7544 3.0000 117.0000
-7.3293 -5.9662 4.8563 6.0000 76.0000
-7.4741 -6.0081 4.9274 7.0000 104.0000
-7.4627 -5.9240 4.8959 7.0000 155.0000
-7.6398 -5.9885 4.9874 8.0000 112.0000
-7.6679 -5.9349 4.9820 9.0000 78.0000
-7.6525 -5.8483 4.9488 9.0000 103.0000
-7.6037 -5.7375 4.8946 8.0000 99.0000
-7.4567 -5.5551 4.7785 5.0000 140.0000
-7.1470 -5.2566 4.5604 6.0000 187.0000
-5.4123 -3.9302 3.4442 6.0000 85.0000
-5.4102 -3.8782 3.4278 7.0000 62.0000
-5.4063 -3.8254 3.4105 9.0000 68.0000
-5.4173 -3.7835 3.4028 8.0000 63.0000
-5.4514 -3.7578 3.4096 9.0000 67.0000
-5.4979 -3.7403 3.4242 10.0000 70.0000
-5.5444 -3.7224 3.4387 10.0000 76.0000
-5.5961 -3.7075 3.4565 9.0000 66.0000
-7.1512 -4.6744 4.3925 8.0000 60.0000
-7.2059 -4.6473 4.4084 9.0000 88.0000
-7.3072 -4.6493 4.4525 6.0000 105.0000
-7.4751 -4.6920 4.5368 4.0000 116.0000
-7.6476 -4.7350 4.6233 6.0000 117.0000
-7.8771 -4.8105 4.7434 4.0000 146.0000
-8.5297 -5.1373 5.1154 3.0000 110.0000
-8.6246 -5.1226 5.1532 6.0000 74.0000
-8.8303 -5.1717 5.2565 6.0000 90.0000
-8.7107 -5.0302 5.1673 4.0000 127.0000
-10.1769 -5.7936 6.0117 3.0000 186.0000
-8.2927 -4.6541 4.8864 1.0000 142.0000
-8.3538 -4.6212 4.9055 4.0000 120.0000
-8.3672 -4.5618 4.8969 5.0000 103.0000
-8.3518 -4.4872 4.8718 3.0000 137.0000
-8.3776 -4.4350 4.8709 3.0000 156.0000
-8.5539 -4.4613 4.9569 3.0000 120.0000
-8.6081 -4.4226 4.9724 3.0000 126.0000
-8.6636 -4.3842 4.9888 1.0000 162.0000
-9.3614 -4.6652 5.3721 4.0000 97.0000
-9.3907 -4.6081 5.3726 3.0000 71.0000
-10.8948 -5.2632 6.2107 5.0000 127.0000
-10.9084 -5.1875 6.2002 3.0000 130.0000
-14.4893 -6.7811 8.2037 4.0000 102.0000
-14.5460 -6.6992 8.2123 5.0000 127.0000
-13.8901 -6.2942 7.8213 4.0000 114.0000
-13.7626 -6.1349 7.7284 3.0000 181.0000
-10.0838 -4.4215 5.6539 1.0000 147.0000
-11.3217 -4.8815 6.3281 12.0000 78.0000
-11.6851 -4.9533 6.5134 18.0000 54.0000
-11.7630 -4.9014 6.5398 14.0000 54.0000
-11.7557 -4.8139 6.5193 8.0000 83.0000
-11.7462 -4.7261 6.4979 6.0000 101.0000
-11.5953 -4.5829 6.3991 6.0000 91.0000
-11.3908 -4.4215 6.2717 3.0000 72.0000
-11.4551 -4.3658 6.2921 4.0000 109.0000
-12.0847 -4.5209 6.6213 5.0000 104.0000
-12.0445 -4.4219 6.5844 4.0000 133.0000
-11.5344 -4.1545 6.2926 4.0000 72.0000
-13.1330 -4.6393 7.1457 5.0000 94.0000
-11.4499 -3.9661 6.2198 3.0000 112.0000
-13.2353 -4.4935 7.1708 6.0000 92.0000
-13.2593 -4.4111 7.1689 5.0000 94.0000
-12.7358 -4.1504 6.8730 6.0000 115.0000
-9.2145 -2.9408 4.9697 5.0000 46.0000
-9.2553 -2.8914 4.9820 2.0000 47.0000
-11.5098 -3.5180 6.1779 10.0000 116.0000
-11.1797 -3.3423 5.9903 8.0000 101.0000
-11.1325 -3.2539 5.9544 8.0000 81.0000
-11.1094 -3.1733 5.9316 10.0000 46.0000
-11.1673 -3.1158 5.9521 12.0000 65.0000
-11.1896 -3.0482 5.9539 9.0000 63.0000
-11.2107 -2.9802 5.9553 8.0000 107.0000
-11.0521 -2.8655 5.8620 9.0000 81.0000
-11.0919 -2.8033 5.8738 7.0000 125.0000
-11.0864 -2.7297 5.8620 8.0000 67.0000
-11.0692 -2.6535 5.8442 4.0000 56.0000
-11.0584 -2.5793 5.8301 4.0000 142.0000
-10.7275 -2.4329 5.6484 4.0000 127.0000
-11.3483 -2.5005 5.9657 5.0000 177.0000
-11.3765 -2.4336 5.9726 6.0000 100.0000
-11.3162 -2.3482 5.9334 8.0000 94.0000
-11.2047 -2.2534 5.8679 8.0000 112.0000
-10.7202 -2.0877 5.6084 6.0000 135.0000
-10.6838 -2.0126 5.5829 7.0000 51.0000
-10.7932 -1.9647 5.6334 9.0000 69.0000
-11.0155 -1.9354 5.7427 9.0000 44.0000
-11.0728 -1.8755 5.7664 9.0000 67.0000
-10.8266 -1.7656 5.6330 7.0000 90.0000
-10.8170 -1.6960 5.6225 7.0000 89.0000
-11.0016 -1.6558 5.7126 7.0000 77.0000
-12.4973 -1.8024 6.4802 4.0000 64.0000
-10.7141 -1.4783 5.5542 4.0000 62.0000
-10.7283 -1.4133 5.5569 4.0000 56.0000
-10.9276 -1.3713 5.6553 6.0000 74.0000
-11.1674 -1.3319 5.7745 11.0000 43.0000
-11.1824 -1.2641 5.7782 7.0000 36.0000
-11.1493 -1.1911 5.7572 5.0000 38.0000
-11.1891 -1.1260 5.7741 3.0000 37.0000
-11.2535 -1.0627 5.8037 1.0000 40.0000
-16.7339 2.1229 8.3871 1.0000 53.0000
-16.3218 2.1725 8.1877 12.0000 57.0000
-16.2816 2.2689 8.1744 8.0000 50.0000
-15.1218 2.2021 7.6005 7.0000 89.0000
-17.2393 2.6183 8.6692 4.0000 67.0000
-16.2530 2.5707 8.1824 9.0000 96.0000
-15.9929 2.6303 8.0598 12.0000 45.0000
-15.9190 2.7186 8.0309 4.0000 67.0000
-14.9731 2.6518 7.5632 6.0000 111.0000
-15.8765 2.9123 8.0269 4.0000 138.0000
-17.2192 3.2678 8.7136 5.0000 101.0000
-17.2059 3.3748 8.7171 3.0000 92.0000
-17.1603 3.4753 8.7047 7.0000 76.0000
-14.6777 3.0666 7.4584 2.0000 88.0000
-14.6709 3.1592 7.4646 2.0000 76.0000
-15.4332 3.4225 7.8617 5.0000 78.0000
-15.4171 3.5184 7.8644 7.0000 76.0000
-15.1240 3.5493 7.7262 5.0000 74.0000
-15.5871 3.7589 7.9736 5.0000 105.0000
-14.9767 3.7092 7.6738 5.0000 78.0000
-14.9536 3.8010 7.6738 4.0000 65.0000
-14.9439 3.8963 7.6809 3.0000 85.0000
-14.9656 4.0002 7.7045 3.0000 122.0000
-14.9650 4.0986 7.7169 5.0000 76.0000
-17.8071 4.9943 9.1933 5.0000 84.0000
-20.8686 5.9911 10.7883 2.0000 126.0000
-17.0602 5.0115 8.8397 3.0000 84.0000
-15.5549 4.6733 8.0767 4.0000 87.0000
-15.4805 4.7548 8.0531 5.0000 78.0000
-15.1382 4.7515 7.8906 13.0000 73.0000
-15.1267 4.8500 7.8999 9.0000 74.0000
