7.6542 9.7244 3.8206
7.7226 9.6885 3.8250
7.7597 9.6134 3.8142
7.8034 9.5471 3.8068
7.8582 9.4946 3.8051
8.0514 9.6075 3.8695
8.1269 9.5776 3.8774
8.0734 9.3970 3.8247
8.0380 9.2404 3.7814
8.0927 9.1888 3.7805
8.3646 9.3810 3.8798
8.6071 9.5346 3.9644
8.5351 9.3390 3.9052
8.5793 9.2724 3.8994
8.6197 9.2022 3.8921
8.7608 9.2386 3.9298
9.1801 9.5628 4.0903
9.3985 9.6709 4.1606
9.5354 9.6922 4.1946
9.6224 9.6613 4.2066
9.6190 9.5401 4.1797
9.6658 9.4695 4.1747
9.7532 9.4386 4.1873
17.0553 14.5933 6.9054
16.4713 13.9192 6.6354
16.4976 13.7689 6.6120
16.0994 13.2696 6.4204
16.1175 13.1192 6.3955
15.5814 12.5246 6.1533
15.7179 12.4763 6.1768
15.8483 12.4221 6.1979
16.5737 12.8275 6.4494
16.3642 12.5054 6.3384
16.6291 12.5471 6.4108
16.7824 12.5019 6.4401
15.6335 11.4972 5.9741
16.9880 12.3338 6.4603
17.0688 12.2332 6.4623
17.1139 12.1073 6.4512
17.0491 11.9051 6.3993
17.0281 11.7357 6.3645
17.2216 11.7138 6.4096
17.2915 11.6069 6.4090
17.2891 11.4520 6.3821
17.7848 11.6241 6.5379
18.2398 11.7625 6.6779
18.2826 11.6319 6.6673
18.3285 11.5037 6.6582
18.3264 11.3462 6.6322
25.8181 12.8677 8.8659
25.7686 12.6463 8.8223
25.9129 12.5204 8.8451
26.0108 12.3714 8.8524
26.0239 12.1824 8.8314
26.0851 12.0165 8.8270
26.0931 11.8266 8.8050
26.5336 11.8306 8.9286
26.3019 11.5343 8.8270
26.2747 11.3307 8.7945
26.3587 11.1756 8.7994
26.5212 11.0530 8.8308
26.6337 10.9085 8.8457
26.6753 10.7349 8.8375
26.7566 10.5774 8.8428
26.8193 10.4123 8.8422
27.7975 10.5964 9.1421
25.2132 9.4341 8.2758
25.2769 9.2815 8.2778
28.8235 10.3842 9.4142
25.5782 9.0376 8.3393
25.6178 8.8751 8.3344
25.9325 8.8064 8.4187
25.6068 8.5208 8.2963
25.4723 8.3028 8.2362
26.8216 8.5611 8.6539
25.6416 8.0112 8.2585
25.5193 7.8015 8.2037
25.5209 7.6310 8.1891
25.6645 7.5027 8.2201
25.7505 7.3567 8.2330
26.4011 7.3678 8.4257
26.5261 7.2275 8.4512
27.9523 7.4324 8.8894
27.9594 7.2509 8.8773
28.2351 7.1378 8.9506
10.7355 -9.4540 4.4116
10.6267 -9.4746 4.3908
10.6826 -9.6427 4.4380
10.6345 -9.7184 4.4427
10.6133 -9.8192 4.4588
10.6059 -9.9338 4.4810
10.5781 -10.0302 4.4951
10.5626 -10.1393 4.5147
10.5283 -10.2312 4.5267
10.4912 -10.3211 4.5379
10.4819 -10.4392 4.5613
10.4776 -10.5638 4.5873
10.4414 -10.6572 4.5999
10.4183 -10.7650 4.6187
10.3957 -10.8744 4.6380
10.3695 -10.9810 4.6562
10.3528 -11.0990 4.6790
10.3299 -11.2115 4.6995
10.3072 -11.3256 4.7206
10.2746 -11.4298 4.7376
10.2443 -11.5377 4.7560
10.2496 -11.6873 4.7915
10.2116 -11.7890 4.8073
10.1900 -11.9110 4.8313
10.1680 -12.0339 4.8556
10.1350 -12.1452 4.8752
10.0834 -12.2352 4.8864
10.1084 -12.4199 4.9350
10.0565 -12.5123 4.9470
10.0604 -12.6756 4.9868
10.0161 -12.7800 5.0035
9.9966 -12.9175 5.0331
9.9886 -13.0721 5.0691
9.9514 -13.1904 5.0911
9.9400 -13.3447 5.1268
9.9038 -13.4678 5.1505
9.8761 -13.6041 5.1792
9.8487 -13.7430 5.2088
9.8144 -13.8742 5.2355
9.8036 -14.0407 5.2753
9.7672 -14.1730 5.3022
9.7440 -14.3268 5.3371
9.7156 -14.4752 5.3699
9.6620 -14.5879 5.3895
9.6582 -14.7782 5.4376
9.6088 -14.9014 5.4610
9.5813 -15.0610 5.4976
9.5187 -15.1672 5.5149
9.4350 -15.2408 5.5204
-2.1192 -2.5241 1.0395
-2.1408 -2.5184 1.0424
-2.1456 -2.4929 1.0374
-2.1458 -2.4623 1.0304
-2.1527 -2.4398 1.0266
-2.1549 -2.4123 1.0207
-2.1556 -2.3834 1.0143
-2.1566 -2.3553 1.0082
-2.1509 -2.3202 0.9991
-2.0900 -2.2267 0.9654
-2.0964 -2.2062 0.9622
-2.1039 -2.1871 0.9595
-2.1253 -2.1824 0.9631
-2.1748 -2.2061 0.9789
-2.1667 -2.1710 0.9695
-2.1739 -2.1516 0.9669
-2.1782 -2.1296 0.9631
-2.1816 -2.1068 0.9590
-2.1862 -2.0855 0.9554
-2.1899 -2.0635 0.9516
-2.1934 -2.0415 0.9478
-2.1813 -2.0054 0.9376
-2.1886 -1.9874 0.9355
-2.1965 -1.9701 0.9338
-2.1743 -1.9261 0.9197
-2.1846 -1.9115 0.9191
-39.3929 13.6497 12.2295
-39.4966 13.9577 12.2879
-39.2314 14.1354 12.2323
-39.3521 14.4523 12.2971
-39.1817 14.6632 12.2719
-39.3296 14.9943 12.3466
-39.4757 15.3281 12.4215
-38.2242 15.1126 12.0576
-38.0578 15.3174 12.0346
-37.9604 15.5496 12.0337
-38.0999 15.8805 12.1084
-38.3517 16.2623 12.2196
-38.9350 16.7924 12.4376
-38.7829 17.0097 12.4221
-37.1053 16.5460 11.9183
-35.2112 15.9609 11.3426
-35.6086 16.4052 11.5024
-35.4812 16.6112 11.4940
-35.4028 16.8401 11.5018
-35.2755 17.0457 11.4942
-36.5865 18.2366 11.9922
-36.4936 18.4707 11.9986
-36.4240 18.7171 12.0132
-36.2566 18.9132 11.9961
-36.1059 19.1173 11.9849
-36.9627 19.8624 12.3087
-36.9978 21.0675 12.4884
-37.0166 21.3801 12.5387
-37.0123 21.6815 12.5819
-7.4086 12.7714 4.3507
-7.2977 13.9263 4.6309
-6.6163 12.8159 4.2507
-6.5415 12.8640 4.2532
-6.5054 12.9897 4.2813
-6.4243 13.0268 4.2804
-6.3212 13.0185 4.2650
-6.1295 12.8232 4.1892
-5.9372 12.6191 4.1111
-5.9660 12.8853 4.1852
-5.8749 12.8954 4.1768
-5.6878 12.6903 4.0996
-5.7012 12.9323 4.1659
-5.7178 13.1890 4.2366
-5.6379 13.2264 4.2375
-5.5544 13.2555 4.2358
-5.4204 13.1615 4.1954
-4.9701 12.2807 3.9069
-5.2163 13.1209 4.1619
-5.1434 13.1723 4.1681
-4.6340 12.0851 3.8176
-5.0800 13.4968 4.2501
-4.8462 13.1189 4.1226
-4.8549 13.3947 4.1993
-4.8905 13.7562 4.3023
-4.8328 13.8630 4.3262
-5.0810 14.8688 4.6281
-4.7013 14.0377 4.3622
-4.6402 14.1429 4.3858
-4.4633 13.8906 4.2995
-4.7066 14.9633 4.6203
-4.0930 13.2957 4.1010
-4.0197 13.3482 4.1094
-3.9236 13.3247 4.0948
-3.8052 13.2213 4.0561
-3.7393 13.2989 4.0726
-3.6505 13.2956 4.0648
-3.5604 13.2863 4.0552
-3.4580 13.2280 4.0311
-3.3796 13.2601 4.0344
-3.1297 12.6015 3.8297
-3.0510 12.6149 3.8280
-2.7553 11.7047 3.5489
-2.8555 12.4746 3.7749
-2.7311 12.2764 3.7104
-2.6569 12.2985 3.7120
-2.5804 12.3099 3.7106
-2.5073 12.3377 3.7143
-2.4408 12.4000 3.7283
-2.3850 12.5212 3.7601
-2.4746 13.4418 4.0297
-2.3971 13.4851 4.0381
-2.2857 13.3321 3.9884
-2.1164 12.8156 3.8311
-2.0349 12.8103 3.8258
-1.9619 12.8596 3.8367
-1.8816 12.8619 3.8339
-1.8685 13.3446 3.9732
-1.7291 12.9249 3.8460
-1.5658 12.2755 3.6514
-1.4601 12.0343 3.5775
-1.3855 12.0363 3.5756
-1.3121 12.0494 3.5770
-1.2399 12.0744 3.5820
-1.1655 12.0789 3.5812
-1.1161 12.3602 3.6618
-1.0513 12.4988 3.7005
-0.9459 12.1356 3.5921
-0.8697 12.1173 3.5851
-0.7959 12.1310 3.5876
-0.7240 12.1788 3.6003
-0.6541 12.2740 3.6269
-0.5800 12.3046 3.6348
-0.5075 12.3818 3.6564
-0.4351 12.4873 3.6865
-0.3582 12.4821 3.6842
-0.2804 12.4284 3.6679
-0.2063 12.5623 3.7067
-0.1312 12.7658 3.7660
-0.0538 13.0198 3.8401
0.0257 12.8644 3.7946
0.1046 12.8611 3.7938
0.1854 12.9888 3.8314
0.4513 21.9746 6.4617
0.5804 21.7565 6.3988
0.7142 21.7621 6.4016
0.8465 21.7257 6.3923
0.9244 20.4976 6.0343
1.0306 20.1110 5.9228
1.1503 20.0401 5.9039
1.2933 20.3478 5.9963
1.4478 20.7637 6.1208
1.7392 22.9105 6.7535
1.6836 20.5148 6.0534
1.2859 14.5843 4.3144
1.3883 14.7138 4.3549
1.4800 14.7193 4.3591
1.5569 14.5849 4.3223
1.6237 14.3748 4.2633
1.7360 14.5666 4.3229
1.8302 14.5938 4.3341
1.7855 13.5651 4.0339
1.9030 13.8020 4.1072
1.9660 13.6400 4.0628
0.9615 6.4074 1.9262
0.9972 6.3786 1.9195
1.0381 6.3828 1.9226
2.0947 12.3765 3.7033
2.1676 12.3464 3.6983
2.2234 12.2233 3.6657
2.2939 12.1859 3.6587
2.3903 12.2827 3.6918
2.4616 12.2481 3.6859
2.5984 12.5297 3.7747
2.6895 12.5801 3.7946
2.7987 12.7087 3.8381
2.8662 12.6454 3.8244
3.6308 15.5707 4.7087
3.1159 13.0040 3.9432
3.1975 12.9921 3.9454
3.2865 13.0095 3.9566
3.1898 12.3090 3.7511
3.2688 12.3022 3.7550
3.3169 12.1819 3.7247
3.3738 12.0976 3.7053
3.4263 12.0010 3.6823
3.5260 12.0691 3.7095
3.6413 12.1851 3.7516
3.5082 11.4834 3.5438
3.5952 11.5148 3.5601
4.2854 13.4326 4.1560
3.7035 11.3694 3.5292
3.8193 11.4849 3.5719
3.8857 11.4494 3.5682
4.3846 12.6623 3.9513
4.5652 12.9265 4.0417
4.5794 12.7177 3.9856
4.0007 10.9020 3.4284
4.0783 10.9060 3.4374
4.2026 11.0314 3.4846
4.2337 10.9115 3.4551
4.2353 10.7202 3.4031
4.3060 10.7065 3.4070
4.4087 10.7704 3.4357
4.4197 10.6112 3.3939
4.5012 10.6228 3.4062
5.3959 12.5178 4.0190
4.6050 10.5069 3.3871
4.6968 10.5399 3.4068
5.6582 12.4889 4.0423
4.8804 10.6000 3.4450
4.9189 10.5133 3.4267
4.8930 10.2931 3.3652
4.9239 10.1964 3.3436
5.0033 10.2005 3.3548
5.0975 10.2331 3.3756
5.1476 10.1768 3.3675
5.1630 10.0537 3.3374
5.5811 10.7051 3.5629
5.6956 10.7631 3.5935
5.6343 10.4912 3.5149
5.7174 10.4910 3.5264
6.6270 11.9832 4.0372
6.5036 11.5917 3.9196
6.1865 10.8702 3.6901
6.2497 10.8262 3.6882
6.3214 10.7968 3.6913
6.2801 10.5771 3.6298
6.2151 10.3230 3.5562
6.2744 10.2781 3.5539
6.4035 10.3463 3.5907
6.4653 10.3044 3.5899
6.4986 10.2176 3.5736
6.5669 10.1864 3.5767
6.6991 10.2527 3.6140
6.6654 10.0658 3.5629
6.7286 10.0271 3.5638
6.7296 9.8968 3.5323
6.7684 9.8237 3.5211
6.8214 9.7717 3.5174
6.9194 9.7838 3.5368
7.8658 10.9774 3.9819
7.9070 10.8932 3.9690
8.2496 11.2194 4.1052
9.2766 12.4545 4.5745
9.3777 12.4303 4.5866
8.2017 10.7348 3.9833
7.9343 10.2539 3.8241
8.0225 10.2375 3.8362
8.8270 11.1224 4.1852
7.8973 9.8272 3.7193
8.0308 9.8686 3.7533
8.2567 10.0198 3.8294
8.4693 10.1502 3.8985
8.5426 10.1112 3.9036
8.2019 9.5883 3.7224
8.1047 9.3580 3.6528
8.2468 9.4047 3.6904
8.3713 9.4293 3.7199
8.5830 9.5490 3.7873
8.7067 9.5678 3.8157
8.9324 9.6956 3.8878
8.6191 9.2414 3.7280
8.7666 9.2846 3.7668
9.2865 9.7147 3.9628
9.3760 9.6886 3.9755
9.5535 9.7515 4.0249
9.6314 9.7111 4.0325
9.7248 9.6856 4.0465
9.7218 9.5646 4.0210
9.7679 9.4927 4.0159
16.2784 14.6909 6.4465
16.1590 14.4043 6.3645
16.2226 14.2833 6.3550
16.5961 14.4322 6.4659
17.0280 14.6252 6.5984
16.7192 14.1828 6.4457
16.6477 13.9475 6.3853
16.5681 13.7086 6.3227
15.6581 12.7950 5.9472
15.5555 12.5528 5.8792
15.6502 12.4715 5.8860
15.6495 12.3147 5.8573
15.4178 11.9800 5.7436
15.4057 11.8198 5.7121
15.6616 11.8641 5.7795
15.6957 11.7390 5.7655
15.7110 11.6009 5.7450
15.7765 11.5003 5.7430
15.8265 11.3887 5.7357
15.8570 11.2636 5.7217
16.8925 11.8436 6.0671
17.0019 11.7654 6.0803
17.1951 11.7437 6.1233
17.2350 11.6165 6.1120
17.3219 11.5211 6.1177
17.7839 11.6715 6.2547
17.7786 11.5127 6.2280
18.1709 11.6090 6.3398
17.9072 11.2865 6.2241
18.1253 11.2691 6.2755
18.1205 11.1125 6.2502
18.1793 10.9957 6.2471
25.8939 12.9634 8.5036
25.9841 12.8098 8.5073
26.0709 12.6543 8.5101
26.0709 12.4573 8.4851
26.1860 12.3155 8.4977
26.8769 12.4395 8.6963
25.8267 11.7618 8.3343
25.8914 11.5999 8.3320
26.2730 11.5778 8.4315
26.5523 11.5068 8.4980
26.6975 11.3756 8.5219
26.7783 11.2164 8.5255
25.0875 10.3280 7.9689
25.1504 10.1739 7.9689
26.7340 10.6238 8.4480
25.2295 9.8474 7.9552
26.6195 10.2019 8.3719
25.4724 9.5837 7.9939
25.3705 9.3681 7.9439
25.3056 9.1681 7.9060
25.3669 9.0146 7.9077
25.4969 8.8850 7.9310
25.7290 8.7891 7.9861
27.1804 9.0989 8.4174
25.7318 8.4390 7.9543
25.5921 8.2196 7.8956
25.7739 8.1038 7.9361
26.0048 8.0014 7.9917
25.8852 7.7911 7.9403
25.7521 7.5790 7.8852
25.8913 7.4477 7.9136
26.5389 7.4579 8.0967
27.9642 7.6734 8.5154
28.0748 7.5188 8.5348
26.6476 6.9618 8.0894
26.7279 6.8079 8.1009
26.9182 6.6807 8.1458
10.8771 -9.5388 4.2636
10.6993 -9.4995 4.2170
10.6665 -9.5881 4.2271
10.6813 -9.7205 4.2563
10.6468 -9.8093 4.2664
10.6327 -9.9177 4.2849
10.6107 -10.0197 4.3007
10.5969 -10.1303 4.3200
10.5608 -10.2205 4.3307
10.5253 -10.3120 4.3419
10.5068 -10.4210 4.3605
10.4792 -10.5220 4.3756
10.4575 -10.6299 4.3936
10.4101 -10.7125 4.4012
10.4432 -10.8794 4.4430
10.4027 -10.9711 4.4543
10.3568 -11.0578 4.4635
10.3813 -11.2212 4.5034
10.3575 -11.3343 4.5231
10.3071 -11.4191 4.5315
10.2987 -11.5516 4.5588
10.2505 -11.6405 4.5689
10.2192 -11.7495 4.5868
10.2144 -11.8907 4.6172
10.1779 -11.9963 4.6337
10.1441 -12.1064 4.6520
10.1168 -12.2253 4.6736
10.0999 -12.3585 4.7006
10.0865 -12.4979 4.7298
10.0533 -12.6144 4.7503
10.0546 -12.7762 4.7876
9.9843 -12.8482 4.7916
9.9888 -13.0182 4.8317
9.9562 -13.1420 4.8548
9.9305 -13.2766 4.8817
9.9093 -13.4191 4.9115
9.8545 -13.5177 4.9252
9.8767 -13.7244 4.9780
9.8468 -13.8614 5.0056
9.8111 -13.9923 5.0308
9.7862 -14.1407 5.0623
9.7485 -14.2726 5.0878
9.7074 -14.4014 5.1123
9.7012 -14.5845 5.1558
9.6579 -14.7144 5.1805
9.6540 -14.9071 5.2271
9.6300 -15.0721 5.2639
9.5609 -15.1682 5.2768
9.4793 -15.2453 5.2833
-2.1197 -2.5771 1.0068
-2.0875 -2.5066 0.9849
-2.1159 -2.5091 0.9908
-2.1057 -2.4662 0.9792
-2.1132 -2.4445 0.9759
-2.1174 -2.4193 0.9711
-2.1207 -2.3933 0.9660
-2.1258 -2.3696 0.9618
-2.1338 -2.3494 0.9590
-2.1196 -2.3052 0.9467
-2.0610 -2.2143 0.9155
-2.0712 -2.1981 0.9141
-2.0827 -2.1832 0.9132
-2.1007 -2.1753 0.9152
-2.1389 -2.1877 0.9256
-2.1455 -2.1677 0.9228
-2.1486 -2.1443 0.9186
-2.1480 -2.1177 0.9130
-2.1485 -2.0924 0.9079
-2.1510 -2.0692 0.9037
-2.1546 -2.0474 0.9000
-2.1580 -2.0256 0.8964
-2.1626 -2.0052 0.8933
-2.1642 -1.9821 0.8891
-2.1664 -1.9598 0.8852
-2.1447 -1.9165 0.8720
-2.1319 -1.8817 0.8624
-40.0856 13.5359 11.8754
-39.9553 13.7656 11.8617
-39.3087 13.8132 11.6951
-39.2168 14.0518 11.6932
-39.3578 14.3754 11.7611
-39.1579 14.5753 11.7279
-39.1703 14.8543 11.7587
-39.0542 15.0850 11.7514
-21.9854 8.6468 6.6445
-38.7142 15.5022 11.7056
-38.5140 15.6969 11.6740
-38.4125 15.9311 11.6727
-38.2546 16.1414 11.6546
-37.0469 15.9003 11.3171
-36.9822 16.1420 11.3273
-35.5745 15.7881 10.9267
-35.4761 16.0057 10.9265
-35.4227 16.2439 10.9405
-35.4446 16.5179 10.9782
-35.7072 16.9078 11.0912
-35.6237 17.1366 11.0976
-36.3121 17.7429 11.3451
-36.2129 17.9705 11.3484
-36.8578 18.5733 11.5853
-36.4843 18.6667 11.5039
-36.3169 18.8631 11.4875
-36.1017 19.0335 11.4562
-37.0710 19.8362 11.8013
-37.0485 20.1175 11.8331
-37.0781 21.0265 11.9638
-33.6605 19.3621 10.9019
-33.5452 19.5707 10.9033
-33.4436 19.7875 10.9095
-7.5196 12.9137 4.2141
-7.3596 12.8193 4.1689
-7.2586 12.8248 4.1562
-7.1976 12.9010 4.1664
-7.0103 12.9359 4.1497
-6.8890 12.9005 4.1249
-6.7084 12.7499 4.0640
-6.6553 12.8396 4.0794
-6.5624 12.8527 4.0707
-6.5012 12.9280 4.0818
-6.5580 13.2430 4.1678
-7.3011 14.9744 4.6946
-7.1150 14.8227 4.6336
-5.7533 12.1764 3.8009
-5.6846 12.2246 3.8049
-6.6743 14.5868 4.5215
-5.7089 12.6815 3.9241
-5.8126 13.1267 4.0497
-5.7350 13.1692 4.0519
-5.6579 13.2129 4.0545
-5.6835 13.5013 4.1317
-4.9774 12.0294 3.6752
-4.9264 12.1159 3.6922
-4.8434 12.1244 3.6857
-4.7629 12.1387 3.6812
-4.6928 12.1793 3.6847
-4.6248 12.2259 3.6901
-5.0285 13.5442 4.0753
-5.0350 13.8209 4.1486
-4.4045 12.3244 3.6946
-4.3154 12.3130 3.6833
-4.2495 12.3675 3.6917
-4.3609 12.9501 3.8561
-4.3007 13.0351 3.8734
-4.2301 13.0906 3.8820
-4.1512 13.1209 3.8834
-4.6634 15.0614 4.4446
-4.0314 13.3081 3.9235
-3.9382 13.2939 3.9122
-3.8191 13.1883 3.8745
-3.7897 13.3940 3.9276
-3.7136 13.4393 3.9340
-3.4546 12.8072 3.7442
-3.3652 12.7872 3.7324
-3.3979 13.2414 3.8577
-3.2890 13.1517 3.8259
-2.8611 11.7458 3.4151
-2.7881 11.7593 3.4140
-2.7183 11.7865 3.4170
-2.6526 11.8331 3.4256
-2.7567 12.6612 3.6582
-2.6632 12.6034 3.6369
-2.5808 12.5950 3.6299
-2.4624 12.4037 3.5709
-2.3866 12.4205 3.5714
-2.3209 12.4917 3.5876
-2.2313 12.4337 3.5671
-2.1891 12.6445 3.6232
-2.1188 12.7014 3.6356
-2.0748 12.9262 3.6957
-2.0080 13.0196 3.7186
-1.9394 13.1088 3.7405
-1.8596 13.1252 3.7418
-1.7477 12.9045 3.6763
-1.6955 13.1241 3.7354
-1.5124 12.2999 3.5000
-1.4246 12.2037 3.4703
-1.3592 12.2984 3.4946
-1.2738 12.2107 3.4676
-1.1988 12.2183 3.4676
-1.1234 12.2206 3.4663
-1.0538 12.2906 3.4841
-0.9769 12.2777 3.4787
-0.8997 12.2584 3.4717
-0.8218 12.2243 3.4606
-0.7542 12.3512 3.4949
-0.6808 12.3989 3.5070
-0.6102 12.5154 3.5385
-0.5325 12.4987 3.5329
-0.4527 12.4170 3.5092
-0.3764 12.4138 3.5075
-0.3003 12.4207 3.5089
-0.2263 12.5465 3.5437
-0.1496 12.5708 3.5501
-0.0739 12.8295 3.6224
0.0049 13.0117 3.6733
0.0847 13.0114 3.6733
0.1653 13.0665 3.6890
0.4131 21.9404 6.1741
0.5431 21.7516 6.1221
0.6925 22.2590 6.2652
0.8355 22.4275 6.3137
0.9154 21.0943 5.9417
0.9955 20.0948 5.6632
1.1222 20.1489 5.6802
1.2539 20.2723 5.7169
1.3666 20.0932 5.6689
1.5622 21.0583 5.9422
1.8028 22.4343 6.3315
1.7760 20.5242 5.7980
1.3708 14.7886 4.1885
1.4575 14.7396 4.1772
1.5382 14.6375 4.1511
1.6419 14.7532 4.1864
1.7134 14.5812 4.1408
1.7944 14.5026 4.1217
1.7607 13.5478 3.8553
1.9414 14.2533 4.0578
2.0225 14.1963 4.0451
0.9524 6.4085 1.8444
0.9911 6.3987 1.8434
1.0281 6.3783 1.8393
1.0721 6.4013 1.8477
2.1590 12.4152 3.5585
2.2488 12.4775 3.5801
2.3368 12.5250 3.5976
2.3903 12.3894 3.5631
2.4726 12.4066 3.5722
2.5571 12.4318 3.5838
2.6175 12.3414 3.5625
3.4217 15.6573 4.5174
2.9836 13.2629 3.8364
2.8762 12.4291 3.6022
2.9629 12.4552 3.6148
3.1019 12.6931 3.6887
3.1816 12.6813 3.6909
3.1378 12.1897 3.5545
3.2128 12.1711 3.5547
3.2884 12.1549 3.5558
3.7875 13.6656 4.0006
3.4747 12.2452 3.5941
3.5551 12.2421 3.5995
3.5723 12.0253 3.5426
3.5136 11.5673 3.4151
3.9818 12.8248 3.7901
4.0199 12.6725 3.7526
4.4132 13.6214 4.0392
3.7320 11.2829 3.3577
3.7894 11.2251 3.3474
3.8657 11.2235 3.3539
4.0779 11.6075 3.4749
4.0951 11.4318 3.4302
4.2055 11.5168 3.4631
4.0738 10.9475 3.3008
4.1522 10.9520 3.3097
4.1954 10.8643 3.2911
4.3251 10.9988 3.3393
4.3431 10.8487 3.3021
4.4016 10.8022 3.2962
4.4663 10.7714 3.2951
4.5416 10.7660 3.3018
4.6752 10.8954 3.3498
4.8741 11.1693 3.4423
4.7957 10.8082 3.3409
4.7550 10.5416 3.2681
4.8232 10.5201 3.2706
4.9116 10.5418 3.2865
4.9705 10.4993 3.2827
5.0081 10.4130 3.2655
5.0947 10.4288 3.2800
5.9763 12.0449 3.7949
6.0626 12.0330 3.8027
5.8087 11.3551 3.6014
6.3057 12.1422 3.8610
6.0949 11.5624 3.6898
6.5419 12.2278 3.9130
6.5415 12.0487 3.8688
6.5948 11.9712 3.8569
6.6620 11.9196 3.8534
6.7474 11.9002 3.8604
6.1778 10.7418 3.4997
6.2368 10.6920 3.4960
6.2969 10.6444 3.4930
6.5122 10.8558 3.5747
6.4271 10.5664 3.4930
6.4791 10.5062 3.4862
6.4980 10.3936 3.4623
6.6772 10.5357 3.5226
6.6469 10.3471 3.4736
6.6268 10.1778 3.4307
6.7448 10.2214 3.4590
6.7126 10.0381 3.4113
7.5569 11.1518 3.8019
7.7070 11.2243 3.8424
7.7411 11.1270 3.8254
7.6278 10.8219 3.7372
7.5513 10.5751 3.6685
7.4106 10.2445 3.5704
9.3143 12.7107 4.4422
9.3800 12.6371 4.4366
7.5336 10.0210 3.5404
7.5827 9.9585 3.5348
8.0836 10.4821 3.7364
8.1229 10.4004 3.7251
7.9398 10.0385 3.6138
7.9037 9.8678 3.5701
7.9016 9.7421 3.5423
7.8922 9.6094 3.5119
7.9627 9.5748 3.5170
8.2037 9.7423 3.5962
8.2446 9.6698 3.5882
8.2761 9.5870 3.5763
8.3766 9.5839 3.5941
9.0677 10.2469 3.8613
8.8412 9.8684 3.7399
8.7547 9.6520 3.6787
8.8170 9.6017 3.6801
9.0561 9.7413 3.7542
9.1203 9.6905 3.7561
9.2613 9.7201 3.7893
9.5488 9.8994 3.8812
9.5831 9.8137 3.8707
9.6784 9.7904 3.8847
9.8214 9.8138 3.9176
9.7128 9.5870 3.8513
16.2437 14.7100 6.1657
16.2733 14.5562 6.1431
16.2310 14.3400 6.0940
15.0191 13.1062 5.6112
15.2233 13.1207 5.6570
15.3211 13.0420 5.6635
15.2586 12.8282 5.6114
15.6289 12.9767 5.7177
15.4446 12.6644 5.6222
15.4928 12.5458 5.6117
15.5680 12.4493 5.6112
15.6403 12.3505 5.6098
15.3422 11.9630 5.4772
15.3840 11.8446 5.4661
15.5338 11.8088 5.4934
15.6414 11.7399 5.5058
15.7070 11.6391 5.5036
15.7470 11.5197 5.4928
15.4161 11.1331 5.3543
15.8041 11.2664 5.4642
16.0871 11.3199 5.5376
17.0951 11.8730 5.8576
17.2694 11.8375 5.8921
17.4773 11.8231 5.9379
17.6079 11.7546 5.9576
16.5096 10.8757 5.5653
16.7093 10.8608 5.6098
18.1318 11.6276 6.0609
17.8594 11.2989 5.9471
18.0468 11.2630 5.9862
18.1738 11.1879 6.0053
18.4397 11.1961 6.0700
18.5601 11.1139 6.0870
26.2097 12.5796 8.1696
26.2628 12.4075 8.1623
26.1935 12.1787 8.1176
26.2038 11.9885 8.0979
26.5316 11.9421 8.1761
26.4045 11.6906 8.1149
26.6046 11.5845 8.1542
27.0125 11.5654 8.2570
26.0152 10.9501 7.9326
28.2433 11.6843 8.5875
25.4678 10.3537 7.7272
25.3851 10.1390 7.6833
25.4405 9.9806 7.6814
26.8241 10.3338 8.0782
27.4607 10.3860 8.2499
26.6672 9.8993 7.9941
26.5863 9.6841 7.9520
25.5606 9.1333 7.6296
26.6913 9.3530 7.9485
26.2418 9.0151 7.7986
26.1488 8.8042 7.7550
26.1099 8.6131 7.7277
26.0560 8.4184 7.6965
26.0695 8.2464 7.6854
26.2245 8.1188 7.7161
26.1761 7.9281 7.6876
26.2548 7.7764 7.6965
28.2426 8.1769 8.2621
26.5122 7.5000 7.7442
26.5559 7.3367 7.7436
26.5855 7.1696 7.7393
26.6597 7.0144 7.7482
26.8711 6.8940 7.7970
26.9942 6.7493 7.8205
27.2426 1.9977 7.6779
27.0833 1.8191 7.6299
27.1055 1.6536 7.6331
27.0969 1.4862 7.6280
27.0333 1.3164 7.6078
30.2971 -16.4512 9.6823
30.0480 -16.5555 9.6351
29.9719 -16.7541 9.6435
10.8505 -9.6019 4.0869
10.6113 -9.5070 4.0192
10.6805 -9.6877 4.0675
10.6527 -9.7824 4.0796
10.6327 -9.8850 4.0950
10.5978 -9.9744 4.1050
10.5343 -10.0373 4.1042
10.5661 -10.1920 4.1405
10.5178 -10.2708 4.1462
10.4676 -10.3480 4.1513
10.5176 -10.5258 4.1964
10.4359 -10.5730 4.1896
10.4017 -10.6685 4.2020
10.3855 -10.7835 4.2220
10.4280 -10.9614 4.2662
10.3889 -11.0554 4.2778
10.2933 -11.0893 4.2664
10.3526 -11.2914 4.3193
10.3122 -11.3868 4.3314
10.2769 -11.4886 4.3460
10.2744 -11.6287 4.3748
10.2440 -11.7387 4.3923
10.1906 -11.8232 4.4004
10.1429 -11.9148 4.4112
10.1297 -12.0483 4.4374
10.0814 -12.1414 4.4487
10.0677 -12.2775 4.4757
10.1116 -12.4865 4.5288
10.0504 -12.5678 4.5358
10.0680 -12.7494 4.5786
10.0210 -12.8512 4.5929
9.9783 -12.9598 4.6096
9.9522 -13.0913 4.6344
9.9567 -13.2653 4.6741
9.9302 -13.4004 4.7000
9.9080 -13.5435 4.7285
9.8709 -13.6681 4.7506
9.8003 -13.7472 4.7571
9.8199 -13.9551 4.8078
9.8160 -14.1330 4.8480
9.7851 -14.2748 4.8757
9.7448 -14.4047 4.8994
9.6803 -14.5003 4.9116
9.6606 -14.6648 4.9469
9.6302 -14.8158 4.9776
9.5823 -14.9419 5.0000
9.5373 -15.0745 5.0245
9.4803 -15.1899 5.0434
-2.0952 -2.5210 0.9483
-2.1162 -2.5147 0.9507
-2.1160 -2.4833 0.9440
-2.1224 -2.4601 0.9402
-2.1305 -2.4391 0.9373
-2.1269 -2.4050 0.9294
-2.1345 -2.3840 0.9265
-2.1401 -2.3609 0.9227
-2.1206 -2.3109 0.9087
-2.0685 -2.2266 0.8814
-2.0782 -2.2096 0.8798
-2.0897 -2.1947 0.8790
-2.1032 -2.1819 0.8790
-2.1347 -2.1875 0.8863
-2.1440 -2.1703 0.8847
-2.1491 -2.1489 0.8814
-2.1513 -2.1249 0.8771
-2.1525 -2.1002 0.8726
-2.1536 -2.0756 0.8680
-2.1565 -2.0531 0.8642
-2.1586 -2.0299 0.8602
-2.1618 -2.0081 0.8566
-2.1663 -1.9876 0.8537
-2.1720 -1.9685 0.8513
-2.1568 -1.9307 0.8410
-2.1426 -1.8945 0.8313
-40.4068 13.3441 11.3774
-40.0513 13.4999 11.3006
-40.0033 13.7576 11.3106
-37.9478 13.3117 10.7539
-37.8718 13.5466 10.7557
-38.0831 14.1516 10.8639
-39.8309 15.0798 11.3872
-39.8909 15.3830 11.4310
-22.0031 8.6411 6.3341
-37.4700 15.2476 10.8175
-37.4177 15.4946 10.8296
-37.3406 15.7318 10.8350
-36.4218 15.6086 10.5967
-36.3723 15.8522 10.6104
-36.9519 16.3753 10.8080
-35.8262 16.1402 10.5083
-35.7801 16.3843 10.5241
-35.7586 16.6406 10.5475
-35.9231 16.9861 10.6263
-36.0612 17.3229 10.6982
-35.9690 17.5511 10.7026
-35.9723 17.8268 10.7358
-36.3119 18.2734 10.8701
-36.3996 18.5983 10.9301
-36.1682 18.7608 10.8951
-35.8386 18.8699 10.8307
-35.7435 19.1008 10.8371
-35.9433 19.4920 10.9335
-35.9331 19.7727 10.9669
-33.6284 18.7744 10.3004
-33.4790 18.9614 10.2901
-33.3402 19.1539 10.2834
-33.2129 19.3528 10.2806
-36.7854 21.7377 11.4240
-7.5995 12.8560 4.0130
-7.5219 12.9049 4.0138
-7.4060 12.8871 3.9942
-7.3239 12.9273 3.9927
-7.2445 12.9720 3.9927
-7.3558 13.3632 4.0983
-7.2336 13.3342 4.0759
-6.9976 13.0903 3.9888
-6.8532 13.0116 3.9522
-6.7652 13.0380 3.9476
-6.6086 12.9296 3.9027
-6.5960 13.1028 3.9424
-6.6525 13.4192 4.0246
-6.5768 13.4736 4.0287
-6.4036 13.3256 3.9731
-5.8064 12.2755 3.6518
-5.6763 12.1935 3.6173
-5.6130 12.2536 3.6248
-6.4340 14.2759 4.2062
-6.6310 14.9573 4.3935
-5.9748 13.7037 4.0171
-5.1747 12.0706 3.5328
-5.0915 12.0808 3.5266
-5.0258 12.1323 3.5325
-4.9582 12.1799 3.5374
-4.8755 12.1904 3.5317
-4.7956 12.2075 3.5281
-4.6991 12.1808 3.5122
-4.6300 12.2248 3.5165
-4.5587 12.2629 3.5194
-4.5433 12.4549 3.5660
-4.4355 12.3953 3.5413
-4.3475 12.3885 3.5317
-4.2585 12.3775 3.5212
-4.1868 12.4162 3.5248
-4.2964 13.0040 3.6827
-4.6608 14.4026 4.0674
-4.3996 13.8857 3.9149
-4.2656 13.7555 3.8711
-3.9651 13.0695 3.6727
-3.8875 13.1029 3.6753
-3.8149 13.1534 3.6827
-3.7628 13.2779 3.7108
-3.7210 13.4441 3.7505
-3.2348 11.9733 3.3380
-3.1731 12.0378 3.3504
-3.0739 11.9588 3.3233
-2.9735 11.8696 3.2937
-3.2633 13.3736 3.7015
-3.2978 13.8841 3.8360
-2.7236 11.7887 3.2571
-3.0587 13.6190 3.7528
-2.9795 13.6573 3.7582
-2.9979 14.1584 3.8899
-2.6390 12.8524 3.5294
-2.5580 12.8579 3.5266
-2.4812 12.8847 3.5297
-2.6085 14.0073 3.8301
-2.3421 13.0207 3.5585
-2.2529 12.9815 3.5441
-2.1286 12.7283 3.4720
-2.1490 13.3535 3.6374
-2.0671 13.3665 3.6374
-1.9281 12.9956 3.5341
-1.8713 13.1689 3.5776
-1.7236 12.6880 3.4452
-1.7718 13.6709 3.7067
-1.5210 12.3294 3.3434
-1.6548 14.1254 3.8231
-1.3826 12.4643 3.3748
-1.3071 12.4822 3.3774
-1.2237 12.4217 3.3591
-1.1462 12.4155 3.3555
-1.0677 12.3953 3.3483
-0.9913 12.3978 3.3473
-0.9340 12.6580 3.4153
-0.8673 12.8245 3.4583
-0.7647 12.4429 3.3550
-0.6968 12.5998 3.3957
-0.6167 12.5478 3.3808
-0.5342 12.4220 3.3462
-0.4642 12.5950 3.3916
-0.3840 12.5039 3.3666
-0.3100 12.6162 3.3960
-0.2331 12.6468 3.4037
-0.1553 12.6297 3.3988
-0.0778 12.6207 3.3962
-0.0004 12.9128 3.4740
0.0802 13.1290 3.5317
0.1604 13.1050 3.5256
0.4141 22.5820 6.0533
0.5361 21.9019 5.8727
0.6698 21.8750 5.8665
0.8045 21.8840 5.8701
0.8717 20.3129 5.4522
0.9949 20.2782 5.4445
1.1208 20.2987 5.4517
1.2554 20.4564 5.4957
1.3782 20.4088 5.4852
1.4968 20.3103 5.4612
1.6517 20.6802 5.5627
1.7703 20.5734 5.5369
1.9593 21.2434 5.7194
2.0343 20.6684 5.5686
2.1591 20.6373 5.5637
2.2802 20.5737 5.5503
1.7584 15.0200 4.0633
2.5071 20.3380 5.4950
1.9009 14.6753 3.9767
1.9895 14.6528 3.9739
2.0800 14.6451 3.9751
0.9488 6.3931 1.7543
0.9863 6.3757 1.7512
1.0275 6.3829 1.7548
1.0681 6.3850 1.7571
2.3170 13.3558 3.6454
2.2697 12.6224 3.4506
2.3475 12.6101 3.4511
2.4308 12.6268 3.4596
2.5035 12.5880 3.4532
2.5687 12.5137 3.4372
2.6370 12.4580 3.4264
2.7361 12.5454 3.4547
2.8109 12.5190 3.4521
2.8611 12.3866 3.4207
3.0248 12.7383 3.5220
3.1035 12.7223 3.5227
3.1569 12.6046 3.4957
3.2260 12.5532 3.4869
3.5752 13.5666 3.7719
3.6513 13.5182 3.7647
3.4885 12.6072 3.5189
3.5523 12.5381 3.5057
3.5929 12.3908 3.4709
3.6562 12.3259 3.4591
3.6597 12.0656 3.3929
3.5838 11.5593 3.2579
3.6596 11.5527 3.2623
3.7293 11.5264 3.2612
3.7775 11.4354 3.2422
4.2491 12.6032 3.5773
3.9524 11.4896 3.2708
3.9256 11.1879 3.1924
3.9688 11.0927 3.1723
4.0285 11.0454 3.1659
4.1790 11.2433 3.2293
4.2031 11.0991 3.1955
4.2475 11.0118 3.1780
4.5530 11.5917 3.3517
4.4415 11.1069 3.2205
4.5088 11.0776 3.2200
4.8270 11.6541 3.3944
4.7273 11.2182 3.2769
4.7934 11.1828 3.2751
4.8666 11.1638 3.2782
5.2015 11.7353 3.4537
5.0072 11.1121 3.2808
4.9839 10.8817 3.2223
4.9658 10.6687 3.1687
5.3992 11.4163 3.3983
5.0332 10.4754 3.1298
5.1037 10.4574 3.1337
6.0190 12.1436 3.6448
5.3094 10.5485 3.1798
5.3938 10.5544 3.1914
6.2446 12.0367 3.6467
6.4196 12.1906 3.7046
7.5858 14.1937 4.3222
6.6475 12.2561 3.7487
8.0049 14.5457 4.4580
6.6193 11.8547 3.6513
6.7420 11.9021 3.6783
6.6401 11.5564 3.5848
6.6136 11.3485 3.5333
6.7480 11.4175 3.5673
6.7057 11.1886 3.5091
6.7552 11.1158 3.4993
6.7782 11.0009 3.4764
7.9121 12.6671 4.0133
6.6615 10.5202 3.3511
6.6831 10.4124 3.3300
7.0040 10.7665 3.4557
7.0678 10.7201 3.4547
7.4066 11.0855 3.5859
7.4490 11.0022 3.5737
6.9152 10.0798 3.2903
7.2250 10.3942 3.4063
7.2358 10.2746 3.3818
7.9221 11.1040 3.6680
7.9460 10.9941 3.6479
7.9996 10.9264 3.6418
8.0745 10.8880 3.6454
7.6822 10.2271 3.4416
7.6951 10.1144 3.4197
7.8331 10.1657 3.4529
7.9007 10.1243 3.4552
7.8596 9.9453 3.4109
7.9096 9.8833 3.4063
7.9354 9.7918 3.3916
7.9929 9.7399 3.3906
8.0556 9.6944 3.3918
8.8893 10.5654 3.7126
8.6201 10.1185 3.5753
8.6732 10.0552 3.5717
9.0308 10.3410 3.6917
9.2944 10.5120 3.7724
8.7047 9.7240 3.5109
8.6753 9.5723 3.4756
8.7208 9.5046 3.4704
8.8815 9.5614 3.5106
9.0996 9.6764 3.5727
9.4825 9.9605 3.6979
9.7687 10.1359 3.7845
10.3766 10.6353 3.9929
9.5244 9.6426 3.6448
9.5697 9.5703 3.6397
9.6530 9.5359 3.6490
15.9077 15.5242 5.9577
15.9887 15.4129 5.9525
16.0550 15.2878 5.9422
16.1534 15.1936 5.9440
16.3363 15.1778 5.9767
16.3871 15.0387 5.9615
14.7002 13.3251 5.3213
14.9796 13.4120 5.3922
14.9986 13.2641 5.3697
14.8920 13.0078 5.3033
15.1625 13.0809 5.3705
15.3020 13.0384 5.3914
15.3093 12.8833 5.3661
15.3687 12.7731 5.3594
14.7231 12.0845 5.1098
15.5446 12.5999 5.3664
15.3138 12.2579 5.2613
15.3850 12.1608 5.2600
15.3131 11.9520 5.2105
15.3318 11.8159 5.1922
15.3971 11.7163 5.1899
15.4795 11.6298 5.1935
15.3791 11.4073 5.1366
15.2196 11.1449 5.0608
15.3668 11.1085 5.0869
15.4291 11.0101 5.0851
16.7136 11.7727 5.4821
16.1517 11.2292 5.2762
16.7573 11.4984 5.4499
16.4179 11.1179 5.3180
16.3541 10.9289 5.2757
16.4861 10.8715 5.2966
16.4335 10.6926 5.2587
16.1760 10.3843 5.1564
16.7545 10.6111 5.3190
16.9373 10.5819 5.3561
18.2513 11.2479 5.7474
18.5099 11.2511 5.8067
18.6308 11.1686 5.8229
19.0599 11.2675 5.9347
19.1538 11.1650 5.9425
23.9434 12.9901 7.2943
24.0712 12.8689 7.3090
24.0796 12.6840 7.2879
24.1287 12.5213 7.2794
23.8523 12.1927 7.1737
24.1079 12.1374 7.2278
24.0244 11.9111 7.1809
24.0519 11.7414 7.1675
24.1365 11.5999 7.1714
24.2850 11.4884 7.1943
24.2254 11.2788 7.1562
24.3723 11.1657 7.1791
26.6461 12.0103 7.8243
26.4923 11.7459 7.7581
26.6675 11.6283 7.7882
24.0298 10.3030 7.0024
27.2008 11.4657 7.9018
26.5155 10.9857 7.6839
24.1518 9.8331 6.9841
24.1005 9.6402 6.9522
24.1142 9.4745 6.9393
24.1998 9.3371 6.9473
25.7638 9.7595 7.3770
25.6312 9.5298 7.3224
25.6693 9.3651 7.3167
25.8772 9.2614 7.3595
26.0512 9.1438 7.3927
26.1032 8.9825 7.3917
26.0845 8.7974 7.3711
29.5729 9.7725 8.3357
26.1197 8.4538 7.3512
26.7404 8.4738 7.5105
26.7734 8.3038 7.5053
26.8932 8.1604 7.5246
26.8390 7.9644 7.4958
26.8920 7.8010 7.4971
28.8748 8.1845 8.0335
27.2511 7.5439 7.5705
29.5243 7.9785 8.1857
29.6110 7.8073 8.1963
29.1240 7.4881 8.0492
30.9592 -7.5504 8.5279
31.7486 -11.1373 9.0022
32.3218 -15.7715 9.6205
30.5683 -16.5774 9.3031
30.2010 -16.6188 9.2225
30.3777 -16.9597 9.3077
30.0654 -17.0282 9.2441
10.8754 -9.6157 3.9017
10.6081 -9.4960 3.8273
10.6979 -9.6952 3.8806
10.6545 -9.7757 3.8865
10.6269 -9.8711 3.8984
10.6021 -9.9699 3.9115
10.5862 -10.0781 3.9283
10.5673 -10.1844 3.9442
10.5392 -10.2828 3.9571
10.4828 -10.3541 3.9597
10.5174 -10.5166 3.9968
10.4833 -10.6118 4.0084
10.4456 -10.7043 4.0189
10.4126 -10.8023 4.0316
10.4048 -10.9275 4.0542
10.3772 -11.0334 4.0697
10.3646 -11.1563 4.0913
10.3378 -11.2653 4.1078
10.3100 -11.3743 4.1243
10.2561 -11.4553 4.1308
10.1856 -11.5181 4.1308
10.2533 -11.7390 4.1869
10.2095 -11.8346 4.1985
10.1518 -11.9147 4.2047
10.1251 -12.0322 4.2240
10.1481 -12.2107 4.2645
10.0754 -12.2758 4.2655
10.0875 -12.4454 4.3026
10.0466 -12.5516 4.3178
10.0437 -12.7070 4.3497
9.9869 -12.7958 4.3590
9.9572 -12.9204 4.3804
9.9152 -13.0304 4.3969
9.9134 -13.1953 4.4317
9.8921 -13.3366 4.4585
9.8609 -13.4664 4.4814
9.8947 -13.6880 4.5345
9.8527 -13.8074 4.5538
9.7928 -13.9031 4.5654
9.7591 -14.0375 4.5896
9.7494 -14.2087 4.6257
9.7222 -14.3570 4.6543
9.7214 -14.5474 4.6963
9.7000 -14.7100 4.7293
9.6581 -14.8437 4.7530
9.6430 -15.0214 4.7906
9.5796 -15.1260 4.8050
9.4933 -15.1952 4.8083
-2.0861 -2.5089 0.9010
-2.1108 -2.5072 0.9049
-2.1217 -2.4890 0.9031
-2.1275 -2.4650 0.8992
-2.1318 -2.4395 0.8948
-2.1339 -2.4119 0.8897
-2.1410 -2.3901 0.8866
-2.1491 -2.3698 0.8840
-2.1388 -2.3295 0.8742
-2.0840 -2.2420 0.8472
-2.0891 -2.2200 0.8438
-2.0827 -2.1862 0.8361
-2.0981 -2.1754 0.8368
-2.1357 -2.1874 0.8461
-2.1504 -2.1756 0.8466
-2.1542 -2.1528 0.8430
-2.1550 -2.1274 0.8384
-2.1555 -2.1019 0.8338
-2.1586 -2.0793 0.8301
-2.1630 -2.0580 0.8271
-2.1657 -2.0354 0.8234
-2.1689 -2.0136 0.8201
-2.1706 -1.9904 0.8162
-2.1749 -1.9699 0.8134
-2.1639 -1.9359 0.8052
-2.1461 -1.8963 0.7946
-2.2093 -1.9283 0.8129
-2.2899 -1.9740 0.8371
-39.3950 12.9862 10.5275
-39.2126 13.1933 10.5003
-40.1496 13.7833 10.7728
-39.8566 13.9567 10.7171
-38.0875 13.6003 10.2650
-38.0015 13.8331 10.2645
-37.9359 14.0734 10.2699
-37.3818 14.1295 10.1436
-37.3505 14.3801 10.1588
-21.9852 8.6215 6.0070
-37.5026 14.9696 10.2491
-37.3624 15.1801 10.2361
-39.1957 16.2057 10.7637
-39.0982 16.4470 10.7645
-36.9831 15.8252 10.2103
-36.8853 16.0519 10.2103
-37.3686 16.5356 10.3715
-36.9021 16.6007 10.2704
-36.3870 16.6382 10.1556
-37.0104 17.1985 10.3582
-36.4045 17.1894 10.2184
-36.6794 17.5953 10.3254
-36.3294 17.7024 10.2574
-43.0679 21.3131 12.1907
-37.5351 19.4437 10.7279
-37.2075 20.1512 10.7385
-37.0899 20.3828 10.7404
-33.7617 18.8248 9.8127
-33.7207 19.0741 9.8345
-33.6114 19.2855 9.8370
-33.5226 19.5089 9.8458
-33.5475 19.7999 9.8885
-33.7066 20.1737 9.9714
-8.8668 14.7762 4.3919
-8.6396 14.6001 4.3242
-8.5523 14.6570 4.3254
-7.6284 13.2607 3.9025
-7.3814 13.0156 3.8176
-7.3700 13.1833 3.8532
-7.2370 13.1340 3.8260
-7.3692 13.5700 3.9388
-7.2876 13.6184 3.9398
-6.9705 13.2204 3.8132
-6.8106 13.1116 3.7700
-6.7419 13.1764 3.7767
-6.1472 12.1987 3.4879
-6.0507 12.1928 3.4757
-5.9446 12.1661 3.4578
-5.8980 12.2609 3.4742
-5.8609 12.3774 3.4968
-5.7853 12.4140 3.4970
-5.6552 12.3321 3.4644
-5.5559 12.3144 3.4499
-5.4822 12.3527 3.4511
-5.4020 12.3764 3.4484
-5.2663 12.2703 3.4102
-5.1803 12.2774 3.4033
-5.0856 12.2624 3.3905
-4.9755 12.2081 3.3672
-4.8835 12.1961 3.3557
-4.8427 12.3124 3.3793
-4.7737 12.3591 3.3839
-4.6850 12.3546 3.3748
-4.6186 12.4086 3.3817
-4.5547 12.4704 3.3908
-4.4470 12.4114 3.3675
-4.3753 12.4512 3.3709
-4.3475 12.6190 3.4087
-4.2752 12.6610 3.4129
-4.3675 13.2006 3.5497
-4.2858 13.2253 3.5493
-4.1955 13.2227 3.5416
-4.7201 15.1969 4.0580
-4.0188 13.2268 3.5294
-3.9664 13.3478 3.5549
-3.9466 13.5860 3.6113
-3.5359 12.4583 3.3084
-3.3078 11.9333 3.1649
-3.2198 11.8991 3.1506
-3.1393 11.8905 3.1433
-3.3978 13.1956 3.4793
-3.2849 13.0893 3.4462
-3.2923 13.4680 3.5397
-3.2096 13.4879 3.5397
-3.0830 13.3185 3.4906
-3.0522 13.5632 3.5493
-3.0960 14.1622 3.6996
-2.9163 13.7447 3.5868
-2.5320 12.3068 3.2107
-2.4993 12.5369 3.2662
-2.4608 12.7510 3.3174
-2.3353 12.5133 3.2524
-2.3005 12.7602 3.3123
-2.2643 13.0157 3.3743
-2.2112 13.1890 3.4153
-2.1731 13.4674 3.4833
-2.1208 13.6759 3.5333
-2.0450 13.7433 3.5473
-1.7919 12.5742 3.2453
-1.7180 12.6090 3.2514
-1.7562 13.5066 3.4779
-1.5628 12.6262 3.2507
-1.4849 12.6327 3.2500
-1.3942 12.5230 3.2198
-1.3136 12.4967 3.2110
-1.3661 13.8059 3.5419
-1.2730 13.7242 3.5191
-1.0712 12.3787 3.1754
-0.9878 12.2932 3.1521
-0.9202 12.4035 3.1786
-0.8493 12.4853 3.1980
-0.7984 12.9044 3.3030
-0.7145 12.8248 3.2816
-0.6429 12.9723 3.3179
-0.5704 13.1387 3.3591
-0.4725 12.6818 3.2426
-0.4106 13.1912 3.3709
-0.3179 12.7273 3.2529
-0.2391 12.6951 3.2443
-0.1638 12.8931 3.2941
-0.0845 12.8667 3.2873
-0.0056 12.9145 3.2993
0.1281 23.0148 5.8551
0.2488 21.2348 5.4050
0.3790 21.2241 5.4028
0.5383 22.4426 5.7119
0.6756 22.4262 5.7087
0.8134 22.4265 5.7099
0.8675 20.4462 5.2097
0.9909 20.3969 5.1987
1.0596 19.3566 4.9367
1.1770 19.3275 4.9311
1.2933 19.2860 4.9225
1.5097 20.6207 5.2632
1.6815 21.1832 5.4084
1.7399 20.3340 5.1955
1.8472 20.1328 5.1472
1.9724 20.1384 5.1516
2.0950 20.1173 5.1494
2.3272 21.0918 5.4008
2.4123 20.6967 5.3039
2.3373 19.0342 4.8840
2.4546 19.0233 4.8849
1.9007 14.0429 3.6172
0.9462 6.3844 1.6646
0.9864 6.3852 1.6663
1.0270 6.3876 1.6685
1.0673 6.3879 1.6702
2.3539 13.6023 3.5245
2.4177 13.4779 3.4963
2.5316 13.6315 3.5397
2.6145 13.6119 3.5387
2.6998 13.6051 3.5412
2.7883 13.6130 3.5475
3.0426 14.4057 3.7570
2.7556 12.6598 3.3098
2.8726 12.8186 3.3555
3.7416 16.2339 4.2469
3.0433 12.8399 3.3704
3.1658 13.0009 3.4173
3.3122 13.2484 3.4869
3.2257 12.5732 3.3160
3.2954 12.5251 3.3086
3.3742 12.5121 3.3106
3.4525 12.4968 3.3120
3.5302 12.4791 3.3130
3.6016 12.4395 3.3084
3.4693 11.7125 3.1224
3.5978 11.8785 3.1720
3.6412 11.7608 3.1467
3.6773 11.6245 3.1165
3.7465 11.5953 3.1148
3.8185 11.5748 3.1155
3.8959 11.5705 3.1207
3.9700 11.5555 3.1232
4.0530 11.5657 3.1325
4.3644 12.2144 3.3135
4.3352 11.9014 3.2365
4.1806 11.2610 3.0709
4.2273 11.1762 3.0550
4.4052 11.4341 3.1320
4.6578 11.8726 3.2586
4.7755 11.9564 3.2892
4.8958 12.0427 3.3209
5.2899 12.7874 3.5331
4.8459 11.5126 3.1921
4.9119 11.4719 3.1891
5.0796 11.6656 3.2510
5.1594 11.6528 3.2561
5.6105 12.4653 3.4904
5.3052 11.5957 3.2581
5.4735 11.7721 3.3165
5.5170 11.6778 3.2995
5.5496 11.5625 3.2767
5.1882 10.6410 3.0270
5.2870 10.6767 3.0461
5.3467 10.6328 3.0429
6.8343 13.3883 3.8350
6.9106 13.3349 3.8318
6.2579 11.8953 3.4325
7.8436 14.6920 4.2457
8.8406 16.3188 4.7277
8.3893 15.2608 4.4380
6.4497 11.5620 3.3815
6.5897 11.6446 3.4170
6.6437 11.5736 3.4082
6.6527 11.4262 3.3770
7.6139 12.8956 3.8208
6.7431 11.2614 3.3528
6.8126 11.2206 3.3530
6.8153 11.0713 3.3211
6.7656 10.8409 3.2649
6.6030 10.4370 3.1565
7.3746 11.5006 3.4884
7.4430 11.4519 3.4874
7.5035 11.3914 3.4830
7.5533 11.3153 3.4739
7.5059 11.0961 3.4212
7.6653 11.1834 3.4622
7.7609 11.1752 3.4742
8.4198 11.9672 3.7340
8.5707 12.0242 3.7678
10.4059 14.4123 4.5295
8.7239 11.9268 3.7705
8.7889 11.8621 3.7671
8.6119 11.4752 3.6618
8.7602 11.5248 3.6945
8.8006 11.4317 3.6820
8.7794 11.2605 3.6444
8.8333 11.1874 3.6383
8.9000 11.1307 3.6376
9.0010 11.1166 3.6508
9.1225 11.1264 3.6722
9.4531 11.3865 3.7762
10.2487 12.1923 4.0617
8.5582 10.0542 3.3724
8.6773 10.0684 3.3947
8.7886 10.0719 3.4138
8.6225 9.7598 3.3268
8.8004 9.8390 3.3716
8.8600 9.7841 3.3714
8.8858 9.6924 3.3586
8.8785 9.5659 3.3339
8.9629 9.5388 3.3434
9.2009 9.6726 3.4094
9.2736 9.6300 3.4143
9.4603 9.7041 3.4607
9.5367 9.6631 3.4668
9.6109 9.6195 3.4722
15.9407 15.7640 5.7043
15.9484 15.5792 5.6729
15.9265 15.3679 5.6317
15.9019 15.1568 5.5902
15.9890 15.0537 5.5882
16.1030 14.9757 5.5959
14.7070 13.5096 5.0846
14.6109 13.2569 5.0235
14.8407 13.3003 5.0741
14.7405 13.0483 5.0128
14.7868 12.9283 5.0015
14.9113 12.8766 5.0167
15.0158 12.8069 5.0253
15.0044 12.6389 4.9956
14.5780 12.1274 4.8298
14.7240 12.0968 4.8533
14.7882 11.9983 4.8501
14.8358 11.8867 4.8418
15.1608 11.9952 4.9232
15.3304 11.9772 4.9541
15.4450 11.9149 4.9674
15.4916 11.7999 4.9590
15.5049 11.6603 4.9404
15.2282 11.3066 4.8307
15.2911 11.2083 4.8288
15.2653 11.0461 4.7993
15.4022 11.0018 4.8209
15.7491 11.1044 4.9075
16.1248 11.2219 5.0025
16.2221 11.1425 5.0113
16.4451 11.1478 5.0586
16.5244 11.0542 5.0621
16.1794 10.6801 4.9370
16.1585 10.5246 4.9110
16.1771 10.3959 4.8972
16.4805 10.4485 4.9691
16.9092 10.5755 5.0780
17.9373 11.0663 5.3645
17.7639 10.8093 5.2931
17.8772 10.7286 5.3071
18.1546 10.7441 5.3694
18.0000 10.5040 5.3049
18.0944 10.4108 5.3137
23.8676 12.9648 6.9043
23.9903 12.8414 6.9168
23.3561 12.3180 6.7130
23.4011 12.1589 6.7044
23.3760 11.9642 6.6762
23.4447 11.8184 6.6750
23.3119 11.5726 6.6171
23.5322 11.5025 6.6593
23.4530 11.2860 6.6173
23.4806 11.1224 6.6058
23.5212 10.9654 6.5982
23.6603 10.8540 6.6183
24.3078 10.9712 6.7797
24.6174 10.9296 6.8469
27.3545 11.9449 7.5843
24.2010 10.3910 6.6958
24.1857 10.2091 6.6742
24.2470 10.0602 6.6740
24.1718 9.8556 6.6367
24.1131 9.6595 6.6043
23.9554 9.4261 6.5454
24.2551 9.3726 6.6112
24.3212 9.2270 6.6136
24.0994 8.9741 6.5386
26.3775 9.6389 7.1376
25.0007 8.9621 6.7517
25.1704 8.8490 6.7826
26.6301 9.1792 7.1589
26.7154 9.0256 7.1668
27.0969 8.9697 7.2539
28.4747 9.2325 7.6059
28.3969 9.0151 7.5703
28.5748 8.8789 7.6030
28.7614 8.7438 7.6380
29.4919 8.7686 7.8169
29.4725 8.5664 7.7977
30.8552 8.7635 8.1478
29.6277 8.2186 7.8115
29.5391 7.9991 7.7752
29.5276 7.8019 7.7595
29.9551 7.7186 7.8588
32.6243 -6.2605 8.4372
32.5500 -6.8698 8.4493
30.7021 -16.6287 8.8665
30.5740 -16.8028 8.8592
30.4492 -16.9783 8.8530
10.6116 -9.4911 3.6339
10.6912 -9.6809 3.6810
10.6459 -9.7594 3.6859
10.6313 -9.8668 3.7016
10.6080 -9.9670 3.7146
10.5867 -10.0700 3.7286
10.5625 -10.1710 3.7418
10.5429 -10.2776 3.7570
10.5128 -10.3748 3.7688
10.5031 -10.4932 3.7882
10.4733 -10.5926 3.8007
10.4501 -10.6996 3.8159
10.4496 -10.8312 3.8397
10.4157 -10.9295 3.8517
10.3883 -11.0355 3.8664
10.3653 -11.1473 3.8831
10.3426 -11.2607 3.9003
10.3144 -11.3692 3.9157
10.2917 -11.4849 3.9336
10.2776 -11.6117 3.9552
10.2578 -11.7337 3.9751
10.2287 -11.8463 3.9918
10.2081 -11.9700 4.0121
10.1844 -12.0918 4.0318
10.1522 -12.2047 4.0485
10.1227 -12.3222 4.0666
10.0457 -12.3826 4.0661
10.0253 -12.5136 4.0887
10.0771 -12.7375 4.1412
10.0292 -12.8380 4.1537
10.0071 -12.9730 4.1772
9.9737 -13.0951 4.1966
9.9503 -13.2320 4.2207
9.9573 -13.4118 4.2582
9.9104 -13.5212 4.2734
9.8813 -13.6563 4.2967
9.8638 -13.8098 4.3256
9.8292 -13.9413 4.3477
9.8105 -14.0976 4.3774
9.7941 -14.2598 4.4088
9.7673 -14.4095 4.4363
9.7321 -14.5489 4.4606
9.7078 -14.7071 4.4905
9.6645 -14.8387 4.5123
9.6640 -15.0387 4.5548
9.5944 -15.1338 4.5656
9.5193 -15.2211 4.5741
9.4634 -15.3403 4.5923
-2.1001 -2.5248 0.8624
-2.1131 -2.5089 0.8614
-2.1253 -2.4922 0.8602
-2.1329 -2.4703 0.8572
-2.1360 -2.4432 0.8526
-2.1400 -2.4177 0.8484
-2.1458 -2.3944 0.8450
-2.1513 -2.3712 0.8415
-2.1573 -2.3486 0.8384
-2.1051 -2.2636 0.8136
-2.0857 -2.2153 0.8013
-2.0966 -2.1996 0.8003
-2.0960 -2.1720 0.7952
-2.1370 -2.1876 0.8052
-2.1558 -2.1800 0.8072
-2.1582 -2.1557 0.8033
-2.1604 -2.1315 0.7994
-2.1630 -2.1081 0.7957
-2.1661 -2.0853 0.7922
-2.1698 -2.0633 0.7891
-2.1711 -2.0393 0.7851
-2.1743 -2.0174 0.7819
-2.1795 -1.9975 0.7795
-2.1853 -1.9782 0.7773
-2.1779 -1.9473 0.7707
-2.1615 -1.9088 0.7611
-2.1907 -1.9108 0.7670
-39.5272 13.3560 10.0408
-39.1991 13.5137 9.9785
-39.0549 13.7326 9.9631
-38.7648 13.8985 9.9109
-39.7969 14.8223 10.2195
-38.2943 14.5306 9.8574
-38.0457 14.7040 9.8166
-21.9466 8.6353 5.6895
-37.3832 15.2446 9.7168
-37.2674 15.4647 9.7112
-38.0846 16.0786 9.9489
-39.0020 16.7487 10.2144
-38.8664 16.9737 10.2060
-37.3498 16.8599 9.8623
-37.3835 17.1521 9.8987
-37.0405 17.2706 9.8360
-34.1683 16.4445 9.1285
-34.5333 16.8819 9.2530
-34.3986 17.0784 9.2449
-34.2558 17.2703 9.2348
-34.2297 17.5214 9.2565
-39.4451 20.4981 10.6958
-39.2223 20.6890 10.6697
-34.0034 18.2031 9.2843
-34.2089 18.5841 9.3711
-34.1470 18.8228 9.3855
-34.4798 19.2831 9.5089
-33.6978 19.1180 9.3260
-33.8293 19.4680 9.3951
-33.3531 19.4673 9.2962
-34.6237 20.4950 9.6839
-34.6941 20.8252 9.7389
-8.8068 14.7103 4.1448
-8.6951 14.7280 4.1347
-8.5440 14.6769 4.1058
-8.5418 14.8825 4.1483
-7.3891 13.0581 3.6311
-7.3273 13.1363 3.6402
-7.2798 13.2415 3.6567
-7.2230 13.3313 3.6691
-7.1910 13.4689 3.6945
-7.1073 13.5110 3.6941
-7.0265 13.5587 3.6952
-6.9427 13.6007 3.6950
-6.2580 12.4465 3.3738
-6.1004 12.3208 3.3299
-5.9523 12.2094 3.2903
-5.8714 12.2335 3.2870
-5.7954 12.2675 3.2865
-5.7393 12.3443 3.2975
-5.6683 12.3899 3.3003
-5.5853 12.4093 3.2963
-5.4442 12.2966 3.2578
-5.3710 12.3352 3.2592
-5.2883 12.3518 3.2550
-5.1887 12.3275 3.2403
-5.1293 12.3987 3.2506
-5.0505 12.4236 3.2490
-4.9753 12.4571 3.2497
-4.8736 12.4231 3.2331
-4.8102 12.4863 3.2417
-4.6901 12.4010 3.2123
-4.5981 12.3867 3.2014
-4.5283 12.4320 3.2058
-4.5461 12.7233 3.2730
-4.4882 12.8088 3.2877
-4.4171 12.8582 3.2933
-4.3617 12.9551 3.3110
-4.2556 12.9013 3.2907
-4.4171 13.6730 3.4788
-4.2587 13.4644 3.4195
-4.1797 13.5023 3.4225
-4.1303 13.6385 3.4503
-4.0601 13.7092 3.4617
-3.9429 13.6199 3.4333
-3.8003 13.4352 3.3812
-3.4167 12.3671 3.1097
-3.3208 12.3137 3.0913
-3.4523 13.1220 3.2868
-3.3324 12.9894 3.2487
-3.0502 12.1991 3.0484
-2.9981 12.3112 3.0715
-2.8819 12.1581 3.0292
-3.4830 15.1103 3.7517
-2.9408 13.1234 3.2581
-2.7935 12.8343 3.1827
-2.6730 12.6533 3.1342
-3.0555 14.9197 3.6852
-2.5604 12.9017 3.1872
-2.8565 14.8739 3.6651
-2.3720 12.7705 3.1477
-2.2824 12.7226 3.1326
-2.2055 12.7431 3.1342
-2.3386 14.0264 3.4431
-2.3441 14.6127 3.5821
-2.2178 14.3885 3.5242
-2.0974 14.1844 3.4715
-2.0514 14.4878 3.5420
-2.0422 15.0908 3.6850
-1.6385 12.6881 3.1008
-1.5455 12.5744 3.0710
-1.4520 12.4436 3.0372
-1.3755 12.4513 3.0369
-1.3086 12.5514 3.0591
-1.2392 12.6376 3.0780
-1.1283 12.2808 2.9903
-1.0538 12.2972 2.9926
-1.0047 12.6369 3.0729
-0.9483 12.9328 3.1426
-0.9014 13.4235 3.2592
-0.8170 13.3958 3.2513
-0.8861 16.1756 3.9180
-0.7811 16.0603 3.8891
-0.5428 12.7576 3.0950
-0.4694 12.8948 3.1272
-0.3904 12.9023 3.1284
-0.3116 12.9210 3.1323
-0.2321 12.9130 3.1300
-0.1517 12.8062 3.1041
-0.0751 13.1890 3.1958
0.0059 13.3944 3.2450
0.0887 13.4758 3.2646
0.1777 13.9641 3.3819
0.2634 13.9637 3.3822
0.3494 13.9725 3.3847
0.4523 14.5183 3.5163
0.8855 23.6718 5.7145
0.6332 14.5738 3.5312
0.9633 19.3956 4.6904
1.0820 19.3845 4.6892
1.2026 19.4046 4.6957
1.3213 19.3920 4.6946
1.4306 19.2536 4.6633
1.7184 21.3478 5.1695
1.7572 20.2760 4.9141
1.8789 20.2358 4.9071
1.8024 18.2025 4.4198
1.8682 17.7559 4.3148
1.7609 15.8074 3.8473
2.1430 18.2155 4.4317
1.9478 15.7287 3.8338
2.4757 19.0267 4.6346
1.9267 14.1370 3.4545
2.0117 14.1133 3.4517
0.9517 6.4103 1.5864
0.9877 6.3832 1.5813
1.0239 6.3588 1.5769
1.0679 6.3821 1.5841
2.4685 13.6900 3.3689
2.8375 15.1992 3.7410
2.8491 14.7595 3.6378
2.9775 14.9315 3.6843
2.9719 14.4415 3.5688
3.0611 14.4259 3.5695
2.9720 13.5956 3.3703
3.0917 13.7384 3.4099
2.9251 12.6373 3.1435
2.9855 12.5472 3.1258
3.0576 12.5088 3.1209
3.1355 12.4946 3.1221
3.2057 12.4506 3.1160
3.6084 13.6651 3.4223
3.8132 14.0894 3.5333
3.9014 14.0723 3.5350
3.9765 14.0088 3.5252
3.9660 13.6527 3.4424
4.0730 13.7064 3.4620
4.2360 13.9407 3.5270
4.3809 14.1058 3.5751
4.4824 14.1259 3.5870
4.5528 14.0482 3.5744
4.6355 14.0098 3.5718
4.7339 14.0179 3.5812
3.9901 11.5829 2.9707
4.0547 11.5398 2.9660
4.1251 11.5138 2.9658
4.3486 11.9066 3.0726
4.4935 12.0728 3.1221
4.7514 12.5296 3.2464
4.8370 12.5229 3.2522
4.5796 11.6443 3.0334
4.9892 12.4599 3.2515
5.9584 14.6179 3.8186
5.4292 13.0902 3.4314
4.9253 11.6735 3.0712
5.5487 12.9278 3.4067
5.6680 12.9853 3.4307
5.7512 12.9583 3.4328
5.8614 12.9910 3.4508
7.1176 15.5187 4.1275
6.1124 13.1155 3.5030
5.5544 11.7307 3.1454
5.7220 11.8953 3.1984
6.4019 13.1013 3.5298
6.4532 13.0034 3.5142
6.3595 12.6197 3.4218
7.2850 14.2371 3.8683
7.4951 14.4286 3.9322
7.5595 14.3367 3.9199
7.6308 14.2592 3.9115
7.6387 14.0660 3.8716
7.6761 13.9303 3.8473
7.6987 13.7709 3.8165
6.5108 11.4814 3.1981
6.3293 11.0038 3.0770
6.4070 10.9824 3.0819
6.6041 11.1621 3.1431
6.5283 10.8813 3.0759
7.2053 11.8436 3.3574
8.1752 13.2531 3.7673
7.3330 11.7271 3.3497
7.3924 11.6622 3.3442
9.0356 14.0614 4.0414
7.1766 11.0206 3.1867
7.4300 11.2580 3.2676
8.0739 12.0712 3.5156
7.5349 11.1176 3.2536
8.1757 11.9047 3.4962
8.3641 12.0203 3.5448
8.4405 11.9727 3.5459
8.5206 11.9302 3.5487
8.8303 12.2046 3.6455
8.7486 11.9369 3.5821
8.6037 11.5895 3.4944
8.6086 11.4486 3.4680
8.2938 10.8905 3.3157
11.0019 14.2620 4.3528
9.7125 12.4329 3.8165
8.8791 11.2240 3.4650
8.9563 11.1799 3.4683
9.0168 11.1150 3.4652
10.1913 12.4056 3.8833
8.6424 10.3906 3.2739
8.5450 10.1463 3.2140
8.5749 10.0559 3.2021
8.6415 10.0090 3.2040
8.6906 9.9419 3.1995
8.7430 9.8789 3.1965
8.7989 9.8200 3.1949
8.9793 9.8983 3.2378
9.0859 9.8932 3.2541
9.1776 9.8707 3.2651
9.2473 9.8241 3.2683
9.3685 9.8312 3.2896
9.4631 9.8092 3.3015
9.5836 9.8129 3.3222
9.5704 9.6799 3.2973
9.6186 9.6100 3.2935
15.3287 15.1249 5.1978
15.9387 15.5348 5.3711
15.8761 15.2850 5.3186
16.2572 15.4606 5.4138
16.0703 15.0963 5.3212
14.5571 13.5082 4.7958
14.6605 13.4377 4.8026
14.7744 13.3762 4.8129
14.8272 13.2594 4.8035
14.7596 13.0368 4.7559
14.8635 12.9671 4.7636
14.9531 12.8846 4.7669
14.5437 12.3773 4.6132
14.6164 12.2854 4.6122
14.7215 12.2203 4.6216
14.7390 12.0829 4.6038
14.8121 11.9916 4.6036
15.0206 12.0086 4.6451
15.2284 12.0222 4.6862
15.5542 12.1252 4.7629
15.4858 11.9198 4.7198
15.5509 11.8187 4.7174
16.1560 12.1227 4.8772
15.4876 11.4736 4.6556
15.5577 11.3783 4.6556
15.2117 10.9828 4.5327
15.3422 10.9344 4.5514
15.6110 10.9821 4.6106
16.0001 11.1095 4.7046
16.4450 11.2694 4.8143
16.4832 11.1476 4.8054
16.3774 10.9303 4.7552
16.2151 10.6788 4.6895
16.1572 10.4991 4.6542
16.2221 10.4003 4.6545
16.4878 10.4284 4.7118
16.8980 10.5432 4.8098
17.5248 10.7852 4.9682
17.6006 10.6835 4.9710
17.5999 10.5359 4.9526
18.0168 10.6358 5.0508
18.0086 10.4825 5.0305
17.4602 10.0205 4.8611
17.5264 9.9160 4.8625
17.9675 10.0204 4.9670
18.1275 9.9643 4.9941
24.0090 13.0046 6.5820
24.0042 12.8122 6.5592
23.5935 12.4076 6.4267
23.2910 12.0668 6.3245
23.4235 11.9537 6.3403
23.5755 11.8495 6.3616
23.3575 11.5610 6.2839
24.0172 11.7045 6.4411
24.2017 11.6111 6.4712
23.4775 11.0872 6.2603
23.5963 10.9667 6.2739
23.8276 10.8969 6.3172
24.9272 11.2151 6.5890
24.9529 11.0431 6.5778
24.9488 10.8587 6.5592
24.1254 10.3249 6.3270
24.3721 10.2539 6.3749
24.2746 10.0381 6.3333
24.1357 9.8077 6.2816
24.1701 9.6493 6.2750
24.5847 9.6403 6.3667
24.4573 9.4177 6.3189
25.1660 9.5135 6.4859
25.4955 9.4597 6.5554
25.2388 9.1887 6.4752
25.4073 9.0739 6.5039
25.6745 8.9920 6.5578
25.6759 8.8160 6.5442
25.7267 8.6574 6.5435
27.9580 9.2173 7.0938
27.1627 8.7708 6.8792
31.1168 9.8366 7.8606
29.7115 9.1924 7.4927
28.0986 8.5050 7.0745
28.1558 8.3341 7.0759
28.1541 8.1461 7.0628
29.0289 8.2064 7.2685
29.2915 8.0868 7.3215
27.4880 7.4080 6.8612
29.4580 7.5521 7.3271
29.1491 7.2826 7.2394
29.3585 7.1438 7.2802
29.4141 6.9665 7.2832
