-0.7536 -10.1438 -0.2877
-0.8017 -9.9636 -0.2821
-0.8647 -9.9804 -0.2828
-0.8957 -9.6485 -0.2722
-0.9432 -9.5245 -0.2684
-0.9979 -9.4837 -0.2673
-1.0393 -9.3264 -0.2624
-0.9975 -8.4771 -0.2351
-1.0505 -8.4787 -0.2354
-1.1047 -8.4890 -0.2359
-1.1594 -8.5019 -0.2366
-1.2286 -8.6143 -0.2405
-1.2631 -8.4830 -0.2365
-1.2773 -8.2312 -0.2285
-1.3244 -8.2025 -0.2279
-1.3751 -8.1961 -0.2279
-1.4229 -8.1738 -0.2275
-1.4734 -8.1669 -0.2275
-1.5251 -8.1665 -0.2278
-1.5794 -8.1786 -0.2285
-1.6278 -8.1599 -0.2282
-1.6833 -8.1762 -0.2291
-1.7728 -8.3515 -0.2352
-1.8065 -8.2604 -0.2326
-1.8284 -8.1214 -0.2284
-1.8778 -8.1081 -0.2283
-1.9231 -8.0779 -0.2277
-1.9593 -8.0116 -0.2259
-1.9990 -7.9616 -0.2246
-2.0274 -7.8699 -0.2220
-2.1070 -7.9761 -0.2260
-2.1162 -7.8164 -0.2211
-2.1300 -7.6800 -0.2170
-2.1680 -7.6350 -0.2159
-2.2388 -7.7041 -0.2187
-2.3566 -7.9279 -0.2266
-2.6806 -8.8199 -0.2571
-3.1330 -10.0861 -0.3002
-2.8053 -8.8387 -0.2588
-2.8961 -8.9345 -0.2627
-2.8906 -8.7343 -0.2565
-2.9474 -8.7259 -0.2568
-3.7560 -10.9000 -0.3313
-2.8028 -7.9734 -0.2324
-2.7316 -7.6210 -0.2210
-2.7797 -7.6079 -0.2211
-2.8100 -7.5467 -0.2196
-2.8520 -7.5181 -0.2192
-2.9236 -7.5666 -0.2215
-3.0365 -7.7178 -0.2274
-3.0367 -7.5812 -0.2233
-3.0952 -7.5921 -0.2243
-3.1325 -7.5508 -0.2236
-3.2048 -7.5931 -0.2257
-3.2624 -7.5990 -0.2266
-3.3094 -7.5798 -0.2266
-3.3586 -7.5657 -0.2269
-3.4358 -7.6133 -0.2293
-3.6229 -7.8982 -0.2401
-3.4146 -7.3250 -0.2206
-3.4372 -7.2570 -0.2189
-3.4860 -7.2448 -0.2192
-3.5348 -7.2322 -0.2195
-3.5889 -7.2301 -0.2202
-3.6197 -7.1811 -0.2193
-3.6323 -7.0974 -0.2171
-3.6532 -7.0315 -0.2155
-3.7112 -7.0373 -0.2165
-3.7401 -6.9879 -0.2156
-3.8168 -7.0272 -0.2178
-3.8787 -7.0378 -0.2191
-3.9008 -6.9763 -0.2177
-3.8795 -6.8393 -0.2135
-3.9353 -6.8396 -0.2144
-4.0472 -6.9353 -0.2189
-4.0912 -6.9129 -0.2190
-4.0904 -6.8157 -0.2163
-4.2027 -6.9066 -0.2207
-4.2456 -6.8815 -0.2207
-5.0406 -8.0596 -0.2663
-4.3618 -6.8796 -0.2226
-4.3639 -6.7905 -0.2202
-4.4355 -6.8096 -0.2220
-4.5180 -6.8440 -0.2244
-4.5921 -6.8643 -0.2262
-4.7861 -7.0603 -0.2349
-4.8299 -7.0316 -0.2350
-23.7461 -34.1293 -1.2966
-23.9522 -33.9789 -1.2965
-12.4367 -17.1898 -0.6425
-12.5431 -17.1148 -0.6426
-12.6479 -17.0375 -0.6426
-12.6272 -14.9929 -0.5906
-12.7092 -14.9037 -0.5902
-7.9408 -9.0830 -0.3485
-7.9898 -9.0267 -0.3482
-8.0577 -8.9916 -0.3488
-13.0959 -14.0844 -0.5788
-13.1313 -13.9499 -0.5764
-13.2491 -13.9031 -0.5779
-13.5430 -13.8668 -0.5836
-13.8606 -13.8479 -0.5904
-27.6445 -26.9512 -1.2012
-27.7194 -26.6944 -1.1972
-27.8392 -26.4824 -1.1953
-27.9312 -26.2454 -1.1922
-28.0207 -26.0076 -1.1891
-28.1127 -25.7737 -1.1862
-28.1947 -25.5323 -1.1829
-28.2429 -25.2622 -1.1782
-28.3442 -25.0414 -1.1760
-28.4318 -24.8099 -1.1732
-28.5433 -24.6004 -1.1715
-28.5225 -24.2790 -1.1642
-28.5577 -24.0083 -1.1595
-28.6829 -23.8148 -1.1586
-28.8023 -23.6168 -1.1575
-28.7353 -23.2685 -1.1488
-28.9057 -23.1142 -1.1499
-29.0517 -22.9401 -1.1501
-29.1328 -22.7154 -1.1477
-29.2003 -22.4813 -1.1448
-29.2534 -22.2376 -1.1414
-29.3645 -22.0391 -1.1404
-10.9749 -8.1312 -0.3997
-10.9617 -8.0177 -0.3972
-10.9515 -7.9076 -0.3949
-11.0308 -7.8623 -0.3961
-11.0821 -7.7968 -0.3962
-11.1601 -7.7497 -0.3974
-10.5207 -7.2104 -0.3707
-10.4911 -7.0958 -0.3678
-10.5245 -7.0247 -0.3674
-10.5411 -6.8503 -0.3648
-10.4955 -6.7294 -0.3615
-10.4420 -6.6050 -0.3579
-10.2262 -6.3810 -0.3482
-10.3478 -6.3690 -0.3513
-12.0176 -7.2956 -0.4126
-11.2292 -6.6297 -0.3799
-11.2256 -6.5351 -0.3782
-11.3305 -6.5034 -0.3806
-11.0101 -6.2299 -0.3673
-11.6032 -6.4719 -0.3878
-11.0952 -5.8362 -0.3637
-11.3606 -5.8871 -0.3720
-11.3333 -5.7850 -0.3697
-28.9283 -14.5456 -1.0011
-28.9874 -14.3531 -1.0001
-29.1252 -14.1995 -1.0019
-28.8199 -13.8324 -0.9879
-28.7542 -13.5844 -0.9826
-28.6630 -13.3268 -0.9764
-28.7324 -13.1453 -0.9760
-28.8016 -12.9638 -0.9756
-28.8714 -12.7828 -0.9753
-28.9429 -12.6026 -0.9751
-29.0445 -12.4354 -0.9759
-29.1221 -12.2578 -0.9760
-29.1053 -12.0410 -0.9728
-29.1842 -11.8645 -0.9730
-29.2880 -11.6978 -0.9741
-29.3676 -11.5211 -0.9744
-29.3697 -11.3145 -0.9720
-29.3825 -11.1128 -0.9701
-29.4126 -10.9184 -0.9688
-29.4810 -10.7384 -0.9689
-29.5745 -10.5674 -0.9698
-29.6190 -10.3788 -0.9692
-29.4241 -10.1082 -0.9604
-29.4543 -9.9170 -0.9593
-29.4738 -9.7226 -0.9580
-29.4939 -9.5290 -0.9567
-29.4508 -9.3159 -0.9532
-29.4090 -9.1045 -0.9499
-29.1630 -8.8326 -0.9398
-29.2502 -8.6635 -0.9410
-29.3576 -8.4997 -0.9428
-29.4553 -8.3324 -0.9443
-29.5463 -8.1627 -0.9457
-29.6605 -7.9987 -0.9478
-29.8647 -7.8575 -0.9530
-30.8040 -7.9029 -0.9826
-30.8218 -7.7062 -0.9816
-30.8229 -7.5059 -0.9801
-30.7789 -7.2954 -0.9771
-29.8472 -6.8814 -0.9449
-29.3924 -6.5868 -0.9286
-29.5983 -6.4425 -0.9340
-29.8612 -6.3081 -0.9414
-30.1716 -6.1805 -0.9503
-29.9276 -5.9394 -0.9411
-30.6809 -5.8935 -0.9646
-30.7391 -5.7093 -0.9653
-16.7765 -3.0090 -0.5085
-16.8173 -2.9099 -0.5092
-29.1739 -4.8648 -0.9111
-29.3966 -4.7168 -0.9174
-29.2788 -4.5138 -0.9126
-29.2674 -4.3283 -0.9114
-29.2598 -4.1439 -0.9103
-29.3411 -3.9719 -0.9121
-29.5810 -3.8197 -0.9191
-28.9250 -2.4781 -0.8936
-28.7663 -2.2868 -0.8880
-28.6562 -2.1012 -0.8840
-28.6127 -1.9215 -0.8822
-28.6010 -1.7445 -0.8815
-28.3747 -1.5560 -0.8738
-16.2906 -2.3813 -0.6881
-28.8585 -2.7837 -1.2417
-29.0860 -2.6257 -1.2510
-29.1911 -2.4547 -1.2550
-29.1708 -2.2728 -1.2535
-29.2151 -2.0960 -1.2548
-29.1257 -1.9100 -1.2503
-27.5502 -0.9590 -1.1787
-27.5076 -0.7886 -1.1766
-27.5798 -0.6213 -1.1796
-27.6391 -0.4530 -1.1820
-27.6823 -0.2839 -1.1838
-27.7314 -0.1142 -1.1860
-27.7616 0.0560 -1.1873
-27.7807 0.2265 -1.1882
-27.7668 0.3968 -1.1876
-27.7109 0.5661 -1.1853
-27.7129 0.7363 -1.1856
-27.7318 0.9071 -1.1866
-27.7787 1.0793 -1.1890
-27.8254 1.2521 -1.1913
-27.8192 1.4229 -1.1914
-27.7641 1.5910 -1.1894
-27.8006 1.7643 -1.1915
-27.8331 1.9379 -1.1934
-27.8436 2.1103 -1.1944
-27.8202 2.2803 -1.1940
-27.7549 2.4465 -1.1917
-27.7295 2.6158 -1.1913
-27.8262 2.7973 -1.1963
-27.6257 2.9485 -1.1882
-27.5466 3.1111 -1.1855
-27.4506 3.2710 -1.1821
-27.4419 3.4409 -1.1826
-27.4401 3.6118 -1.1835
-27.4144 3.7797 -1.1834
-27.3947 3.9484 -1.1836
-27.4114 4.1226 -1.1854
-27.4537 4.3014 -1.1885
-27.3775 4.4618 -1.1863
-27.3063 4.6223 -1.1843
-27.3827 4.8083 -1.1890
-27.4431 4.9926 -1.1931
-27.4522 5.1685 -1.1949
-27.4180 5.3365 -1.1948
-27.3749 5.5026 -1.1944
-27.3553 5.6735 -1.1951
-27.3171 5.8407 -1.1949
-27.2388 5.9989 -1.1930
-27.3768 6.2057 -1.2010
-27.4200 6.3926 -1.2047
-27.1898 6.5151 -1.1960
-27.1047 6.6708 -1.1940
-27.0642 6.8373 -1.1940
-26.9289 6.9792 -1.1898
-11.9967 3.1901 -0.5091
-24.9133 6.7844 -1.1015
-27.3232 7.6207 -1.2140
-27.3365 7.8054 -1.2168
-27.4904 8.0321 -1.2261
-27.4090 8.1912 -1.2246
-27.2340 8.3213 -1.2189
-26.5178 8.2808 -1.1881
-27.4801 8.7666 -1.2351
-13.3973 4.3668 -0.5832
-26.4860 8.8091 -1.1939
-12.8318 4.3575 -0.5594
-26.4580 9.1619 -1.1978
-12.0736 4.3497 -0.5277
-12.0748 4.4341 -0.5290
-27.8984 10.4339 -1.2767
-23.3731 8.9060 -1.0658
-23.3329 9.0550 -1.0665
-23.2694 9.1951 -1.0662
-23.0819 9.2851 -1.0599
-22.9995 9.4164 -1.0587
-22.9515 9.5616 -1.0592
-22.9144 9.7116 -1.0603
-22.8718 9.8595 -1.0611
-22.8347 10.0101 -1.0623
-22.7975 10.1610 -1.0635
-22.7948 10.3279 -1.0664
-22.7673 10.4842 -1.0681
-22.7261 10.6347 -1.0693
-22.6829 10.7847 -1.0704
-22.6307 10.9306 -1.0711
-22.6162 11.0952 -1.0737
-22.6129 11.2663 -1.0769
-22.5951 11.4310 -1.0795
-22.5663 11.5909 -1.0816
-22.5479 11.7568 -1.0842
-22.5274 11.9225 -1.0868
-22.4943 12.0823 -1.0888
-22.4715 12.2482 -1.0915
-22.4292 12.4043 -1.0931
-22.3971 12.5666 -1.0954
-22.3916 12.7448 -1.0990
-22.3580 12.9079 -1.1013
-22.3362 13.0787 -1.1043
-22.3044 13.2445 -1.1068
-22.2091 13.3729 -1.1061
-22.1428 13.5188 -1.1069
-22.0331 13.6381 -1.1056
-21.9304 13.7614 -1.1046
-21.6407 13.7654 -1.0939
-21.5011 14.0502 -1.0955
-21.2887 14.0985 -1.0888
-21.1578 14.1994 -1.0865
-20.9515 14.4370 -1.0849
-20.8519 14.5579 -1.0843
-20.7679 14.6896 -1.0846
-20.3611 14.9717 -1.0773
-20.0413 14.9269 -1.0648
-19.6186 15.1814 -1.0567
-19.5235 15.3003 -1.0566
-19.4183 15.4111 -1.0560
-19.2634 15.4818 -1.0526
-19.1448 15.5808 -1.0513
-19.0781 15.7221 -1.0530
-18.9122 15.7813 -1.0490
-18.6632 15.7687 -1.0402
-18.5106 15.8355 -1.0370
-18.2849 16.0352 -1.0352
-18.2265 16.1829 -1.0376
-18.0793 16.2517 -1.0348
-17.7091 16.5183 -1.0307
-17.5232 16.5471 -1.0255
-17.3729 16.6081 -1.0226
-17.2865 16.7297 -1.0236
-17.1571 16.8095 -1.0219
-16.9387 16.8006 -1.0148
-16.8466 16.9155 -1.0155
-16.6885 16.9637 -1.0121
-16.2715 16.7442 -0.9923
-16.3566 17.0397 -1.0043
-16.2875 17.1774 -1.0066
-16.1770 17.2719 -1.0063
-15.9544 17.4588 -1.0056
-15.8095 17.5149 -1.0032
-15.6266 17.5273 -0.9982
-15.5207 17.6251 -0.9983
-15.3900 17.6944 -0.9968
-15.3104 17.8226 -0.9988
-15.1678 17.8773 -0.9965
-15.0424 17.9517 -0.9955
-14.9129 18.0206 -0.9942
-14.7850 18.0908 -0.9930
-14.5833 18.0693 -0.9866
-14.5363 18.2389 -0.9912
-14.4841 18.4039 -0.9954
-14.1201 18.1698 -0.9774
-14.0035 18.2498 -0.9770
-13.9148 18.3664 -0.9788
-13.7869 18.4314 -0.9777
-13.6883 18.5358 -0.9788
-13.4955 18.5113 -0.9728
-13.4202 18.6472 -0.9758
-13.2881 18.7048 -0.9744
-13.1995 18.8236 -0.9765
-13.0383 18.8385 -0.9729
-12.9010 18.8868 -0.9713
-12.7670 18.9391 -0.9698
-12.6533 19.0213 -0.9701
-12.5440 19.1102 -0.9707
-12.4200 19.1768 -0.9701
-12.3258 19.2897 -0.9721
-12.2914 19.4984 -0.9791
-11.9087 19.1510 -0.9571
-11.6034 18.9181 -0.9412
-11.0278 18.2299 -0.9020
-10.8405 18.1712 -0.8955
-10.5580 17.9472 -0.8807
-10.4282 17.9779 -0.8789
-10.0691 17.6071 -0.8568
-9.9643 17.6747 -0.8571
-9.8542 17.7329 -0.8570
-9.0717 16.5638 -0.7951
-8.9585 16.5981 -0.7940
-8.9400 16.8097 -0.8019
-9.2041 17.5650 -0.8368
-8.8976 17.2368 -0.8177
-8.6898 17.0907 -0.8078
-8.4836 16.9419 -0.7978
-8.4847 17.2068 -0.8083
-8.3676 17.2352 -0.8072
-8.2458 17.2529 -0.8055
-8.1300 17.2824 -0.8045
-8.0166 17.3165 -0.8038
-7.9057 17.3554 -0.8033
-7.7553 17.3060 -0.7986
-7.6538 17.3642 -0.7991
-7.5014 17.3055 -0.7940
-7.3030 17.1352 -0.7836
-7.1992 17.1834 -0.7838
-7.0914 17.2217 -0.7836
-6.9822 17.2565 -0.7832
-6.7783 17.0531 -0.7715
-6.5951 16.8933 -0.7619
-6.4813 16.9074 -0.7607
-6.3098 16.7673 -0.7522
-6.1871 16.7523 -0.7497
-6.0447 16.6810 -0.7446
-5.9177 16.6491 -0.7414
-5.7967 16.6313 -0.7388
-5.6568 16.5560 -0.7337
-5.5182 16.4805 -0.7286
-5.4120 16.4988 -0.7278
-5.2761 16.4243 -0.7229
-5.1639 16.4201 -0.7212
-5.0401 16.3770 -0.7177
-4.9343 16.3904 -0.7169
-4.7346 16.0840 -0.7015
-4.6294 16.0907 -0.7004
-4.4732 15.9149 -0.6911
-4.3927 16.0047 -0.6939
-4.2626 15.9126 -0.6885
-4.1194 15.7645 -0.6806
-4.0161 15.7643 -0.6794
-3.9119 15.7586 -0.6781
-3.7944 15.6969 -0.6742
-3.6781 15.6353 -0.6703
-3.5741 15.6225 -0.6687
-3.4630 15.5759 -0.6657
-3.3606 15.5656 -0.6642
-2.5819 12.3290 -0.5172
-3.1343 15.4333 -0.6565
-3.0353 15.4307 -0.6555
-2.9314 15.4010 -0.6533
-2.8326 15.3961 -0.6523
-2.7227 15.3266 -0.6484
-2.6256 15.3253 -0.6476
-2.5274 15.3165 -0.6465
-2.2986 15.0797 -0.6346
-2.2046 15.0836 -0.6342
-2.1106 15.0870 -0.6337
-1.8940 14.8670 -0.6228
-1.8006 14.8604 -0.6220
-1.7005 14.7938 -0.6186
-1.6027 14.7404 -0.6158
-1.5073 14.7013 -0.6136
-1.4114 14.6516 -0.6110
-1.3203 14.6470 -0.6104
-1.2259 14.6021 -0.6081
-1.1335 14.5735 -0.6065
-1.0405 14.5313 -0.6043
-0.9478 14.4836 -0.6020
-0.8579 14.4712 -0.6012
-0.7680 14.4562 -0.6003
-0.6760 14.3918 -0.5972
-0.5854 14.3398 -0.5948
-0.4969 14.3271 -0.5941
-0.2906 10.2216 -0.4125
-0.2272 10.1963 -0.4113
-0.2300 14.1491 -0.5859
-0.1429 14.1222 -0.5847
-0.0560 14.0629 -0.5820
0.0302 14.0230 -0.5802
0.1159 13.9746 -0.5781
0.2003 13.8817 -0.5741
0.2850 13.8553 -0.5730
0.3693 13.8243 -0.5717
0.4540 13.8208 -0.5716
0.5382 13.8018 -0.5709
0.6228 13.7952 -0.5708
0.7073 13.7891 -0.5707
0.5523 9.5925 -0.3852
0.8766 13.7824 -0.5708
0.9619 13.7877 -0.5713
1.0477 13.7965 -0.5720
1.1350 13.8227 -0.5734
1.2192 13.8085 -0.5731
1.3054 13.8167 -0.5738
1.4028 13.9346 -0.5794
1.4932 13.9725 -0.5815
1.5849 14.0157 -0.5839
1.6727 14.0215 -0.5846
1.7571 13.9981 -0.5840
1.8391 13.9574 -0.5827
1.9248 13.9468 -0.5827
2.0183 13.9901 -0.5852
2.1090 14.0101 -0.5866
2.1991 14.0235 -0.5878
2.2890 14.0334 -0.5889
2.3771 14.0309 -0.5894
2.4626 14.0131 -0.5893
2.5528 14.0213 -0.5903
2.6451 14.0388 -0.5918
2.7348 14.0409 -0.5927
2.8235 14.0366 -0.5933
2.9083 14.0132 -0.5930
2.9959 14.0029 -0.5933
3.0846 13.9969 -0.5939
3.1666 13.9612 -0.5932
3.2468 13.9181 -0.5921
3.3277 13.8795 -0.5913
3.4040 13.8229 -0.5896
3.4716 13.7339 -0.5865
3.5593 13.7259 -0.5872
3.6561 13.7511 -0.5893
3.7432 13.7390 -0.5898
3.7787 13.5407 -0.5818
3.7767 13.2194 -0.5681
3.8090 13.0291 -0.5604
3.8834 12.9873 -0.5596
4.1154 13.4620 -0.5826
4.2440 13.5843 -0.5895
4.3358 13.5847 -0.5907
4.4259 13.5787 -0.5917
4.5192 13.5816 -0.5931
4.6028 13.5546 -0.5931
4.3842 12.6547 -0.5524
4.4472 12.5861 -0.5504
4.8660 13.5080 -0.5950
4.9547 13.4938 -0.5958
5.0335 13.4529 -0.5953
5.1106 13.4077 -0.5946
5.1881 13.3640 -0.5941
5.2682 13.3273 -0.5938
5.3566 13.3114 -0.5946
5.4385 13.2792 -0.5947
5.5195 13.2447 -0.5946
5.6026 13.2152 -0.5948
5.6955 13.2081 -0.5962
5.7981 13.2223 -0.5986
5.8872 13.2047 -0.5994
5.9768 13.1874 -0.6004
6.0672 13.1714 -0.6014
6.1593 13.1583 -0.6026
6.2421 13.1248 -0.6028
5.1202 10.5960 -0.4806
6.3926 13.0266 -0.6018
6.4790 13.0005 -0.6024
6.5655 12.9739 -0.6031
5.3677 10.4458 -0.4795
5.6146 10.7635 -0.4970
5.7417 10.8446 -0.5028
5.7907 10.7766 -0.5012
6.9952 12.8305 -0.6063
7.0845 12.8065 -0.6073
7.1600 12.7576 -0.6070
7.1877 12.6248 -0.6025
7.2486 12.5520 -0.6011
7.3073 12.4762 -0.5995
7.3404 12.3581 -0.5957
7.3867 12.2640 -0.5932
7.3822 12.0880 -0.5865
7.4210 11.9856 -0.5835
7.4875 11.9288 -0.5829
7.5637 11.8877 -0.5832
7.6420 11.8495 -0.5836
7.7265 11.8208 -0.5846
7.8111 11.7915 -0.5856
7.8944 11.7599 -0.5865
7.9939 11.7517 -0.5886
8.1396 11.8094 -0.5944
8.3474 11.9534 -0.6048
8.4148 11.8938 -0.6044
8.4929 11.8492 -0.6048
8.6223 11.8753 -0.6091
8.6855 11.8093 -0.6084
8.8139 11.8311 -0.6125
9.0518 11.9962 -0.6246
9.0997 11.9071 -0.6228
9.1671 11.8439 -0.6224
9.3949 11.9856 -0.6335
9.4757 11.9371 -0.6340
9.5200 11.8429 -0.6320
9.5887 11.7797 -0.6318
9.7059 11.7753 -0.6349
9.7831 11.7217 -0.6352
9.8058 11.6035 -0.6319
9.8223 11.4793 -0.6282
9.9606 11.4973 -0.6328
10.0329 11.4383 -0.6329
10.1201 11.3959 -0.6340
10.2226 11.3700 -0.6362
10.3708 11.3935 -0.6414
10.4175 11.3047 -0.6399
10.4220 11.1712 -0.6357
10.5479 11.1680 -0.6394
10.6942 11.1847 -0.6444
10.8023 11.1598 -0.6469
10.8712 11.0940 -0.6469
10.9314 11.0193 -0.6464
11.0094 10.9626 -0.6471
11.1711 10.9880 -0.6530
11.2470 10.9277 -0.6535
11.3412 10.8847 -0.6552
11.2838 10.6974 -0.6476
11.3820 10.6587 -0.6496
11.5660 10.6986 -0.6568
11.6211 10.6180 -0.6562
11.6808 10.5418 -0.6559
11.8952 10.6035 -0.6647
11.9765 10.5449 -0.6657
12.0900 10.5138 -0.6686
12.2323 10.5065 -0.6731
12.3476 10.4746 -0.6761
12.4407 10.4230 -0.6777
12.4983 10.3414 -0.6774
12.5476 10.2531 -0.6766
12.5830 10.1540 -0.6751
12.7349 10.1482 -0.6801
12.8009 10.0729 -0.6804
12.8191 9.9605 -0.6779
12.7302 9.7667 -0.6696
12.9427 9.8042 -0.6781
13.0706 9.7755 -0.6818
13.0846 9.6613 -0.6793
13.1105 9.5567 -0.6775
13.3416 9.6004 -0.6869
13.5509 9.6254 -0.6951
13.6154 9.5461 -0.6954
13.7846 9.5391 -0.7013
13.9386 9.5198 -0.7064
14.2427 9.6000 -0.7195
14.3363 9.5356 -0.7214
14.3912 9.4453 -0.7212
14.6467 9.4850 -0.7316
14.8343 9.4778 -0.7384
14.9539 9.4255 -0.7417
15.0513 9.3584 -0.7437
15.2379 9.3453 -0.7504
15.4770 9.3618 -0.7599
15.1412 9.0321 -0.7396
15.4366 9.0804 -0.7520
15.4920 8.9856 -0.7520
15.5598 8.8978 -0.7526
15.6524 8.8237 -0.7546
15.7124 8.7309 -0.7549
16.5279 9.0520 -0.7933
16.5981 8.9585 -0.7940
16.4675 8.7579 -0.7847
16.5050 8.6484 -0.7840
16.5365 8.5359 -0.7829
17.2287 8.7600 -0.8146
17.2848 8.6555 -0.8148
17.7336 8.7446 -0.8343
17.2163 8.3584 -0.8062
17.6684 8.4444 -0.8259
17.6936 8.3235 -0.8246
17.5749 8.1363 -0.8164
18.4717 8.4144 -0.8575
18.5047 8.2928 -0.8566
19.1412 8.4375 -0.8849
19.0900 8.2754 -0.8800
19.3343 8.2408 -0.8893
19.6038 8.2139 -0.8998
15.8001 6.5057 -0.7156
15.9175 6.4401 -0.7193
15.9280 6.3309 -0.7180
15.8893 6.2028 -0.7143
16.0296 6.1446 -0.7192
16.0493 6.0394 -0.7183
16.0598 5.9311 -0.7171
16.1081 5.8369 -0.7177
16.2782 5.7858 -0.7240
22.0835 7.6984 -0.9940
20.2681 6.9260 -0.9070
17.9042 5.9953 -0.7949
23.7601 7.7957 -1.0655
24.1223 7.7510 -1.0801
24.2180 7.6181 -1.0824
24.3655 7.5006 -1.0871
22.3248 6.7224 -0.9908
24.9272 7.3399 -1.1088
25.2127 7.2562 -1.1199
25.2914 7.1111 -1.1215
25.7392 7.0669 -1.1400
26.0619 6.9839 -1.1528
26.2840 6.8709 -1.1610
26.8087 6.8327 -1.1830
27.1468 6.7418 -1.1966
27.6644 6.6904 -1.2182
22.4889 5.2922 -0.9814
22.5346 5.1572 -0.9821
22.5190 5.0084 -0.9799
22.5893 4.8788 -0.9818
22.6335 4.7432 -0.9824
33.5483 6.3902 -1.4696
32.9610 6.0689 -1.4415
32.0878 5.7047 -1.4007
35.8212 3.0131 -1.5490
38.0767 -0.5427 -1.6432
37.3805 -0.7623 -1.6126
36.9467 -0.9803 -1.5937
41.4951 -2.1205 -1.7965
38.8776 -2.4657 -1.6819
38.6834 -2.6918 -1.6740
38.9142 -2.9478 -1.6850
39.3404 -3.2230 -1.7047
39.4294 -3.4739 -1.7096
39.8917 -3.7614 -1.7311
41.2615 -4.1460 -1.7930
40.8449 -4.3575 -1.7756
40.6635 -4.5907 -1.7688
40.5463 -4.8296 -1.7648
31.3812 -3.9343 -1.3581
31.2515 -4.1129 -1.3534
30.5685 -4.2141 -1.3241
30.2949 -4.3660 -1.3130
29.8645 -4.4912 -1.2950
29.3586 -4.5996 -1.2737
29.1573 -4.7516 -1.2659
29.0153 -4.9114 -1.2609
27.9218 -5.0797 -1.2146
27.7398 -5.2226 -1.2079
27.3072 -5.3149 -1.1898
27.2652 -5.4806 -1.1894
42.5950 -9.1050 -1.8852
30.6818 -6.9543 -1.3507
42.8784 -9.9942 -1.9060
42.8746 -10.2711 -1.9087
30.7261 -7.5616 -1.3588
43.2810 -10.9317 -1.9331
43.1909 -11.1913 -1.9321
44.3061 -11.7708 -1.9862
42.8488 -11.6657 -1.9228
42.8880 -11.9595 -1.9280
43.7851 -12.4996 -1.9726
43.8782 -13.1106 -1.9841
44.5011 -13.5946 -2.0166
44.6811 -13.9499 -2.0289
44.6118 -14.2292 -2.0297
39.9516 -13.2855 -1.8209
39.8712 -13.5311 -1.8210
46.1232 -16.2860 -2.1219
44.6857 -16.0876 -2.0591
44.4606 -16.6257 -2.0580
45.1958 -17.5356 -2.1027
44.0699 -17.4108 -2.0543
42.9973 -17.2929 -2.0084
43.7106 -18.2059 -2.0528
43.4803 -18.4239 -2.0472
40.7493 -17.8599 -1.9265
40.6207 -18.1015 -1.9256
40.5006 -18.3467 -1.9252
40.2775 -18.5443 -1.9199
37.9508 -18.0410 -1.8173
44.6778 -22.9438 -2.1798
44.5424 -23.2208 -2.1801
46.9667 -25.9696 -2.3320
52.2625 -29.7405 -2.6176
48.1539 -28.5888 -2.4351
48.4101 -29.5502 -2.4667
48.4555 -29.9876 -2.4785
17.1179 -11.0376 -0.8606
17.0557 -11.1462 -0.8609
16.5154 -11.3812 -0.8469
16.3133 -11.3903 -0.8397
16.2423 -11.4896 -0.8397
16.1780 -11.5937 -0.8401
15.9853 -11.6047 -0.8334
15.9049 -11.6961 -0.8330
15.7527 -11.7338 -0.8285
15.5145 -11.7051 -0.8194
15.3432 -11.7243 -0.8138
15.2338 -11.7895 -0.8118
15.1171 -11.8482 -0.8093
15.0700 -11.9613 -0.8107
14.9753 -12.0366 -0.8096
14.9732 -12.1869 -0.8137
14.7763 -12.1782 -0.8067
13.9104 -11.6088 -0.7612
13.8175 -11.6759 -0.7599
13.7244 -11.7423 -0.7587
13.6453 -11.8204 -0.7583
13.4020 -11.7544 -0.7483
13.3385 -11.8444 -0.7488
5.7887 -5.2072 -0.3047
5.7471 -5.2338 -0.3041
5.7171 -5.2710 -0.3042
5.7080 -5.3278 -0.3056
12.3020 -11.6184 -0.7083
12.2247 -11.6882 -0.7079
12.1435 -11.7539 -0.7074
11.9669 -11.7262 -0.7009
11.9082 -11.8127 -0.7018
12.0358 -12.0866 -0.7143
12.0784 -12.2791 -0.7217
11.9297 -12.2778 -0.7170
11.8977 -12.3961 -0.7198
11.7994 -12.4457 -0.7184
12.3998 -13.2404 -0.7621
12.1880 -13.1754 -0.7537
11.8562 -12.9756 -0.7373
11.8379 -13.1164 -0.7413
11.8051 -13.2424 -0.7445
11.8300 -13.4353 -0.7516
10.9571 -12.5995 -0.6984
10.8340 -12.6134 -0.6953
10.6284 -12.5288 -0.6866
10.5565 -12.5999 -0.6869
10.4949 -12.6837 -0.6880
10.5876 -12.9567 -0.7000
10.5010 -13.0129 -0.6995
10.4160 -13.0708 -0.6991
10.3300 -13.1274 -0.6987
10.2548 -13.1977 -0.6991
10.2862 -13.4069 -0.7073
10.0438 -13.2588 -0.6956
9.9616 -13.3194 -0.6955
9.8198 -13.2991 -0.6911
9.7368 -13.3575 -0.6910
9.6360 -13.3910 -0.6896
9.5415 -13.4328 -0.6886
9.4210 -13.4371 -0.6857
9.4811 -13.7008 -0.6968
9.3608 -13.7060 -0.6940
9.3346 -13.8493 -0.6986
9.3950 -14.1250 -0.7102
9.4036 -14.3277 -0.7179
13.7765 -21.2703 -1.0804
17.6855 -27.6743 -1.4118
17.4962 -27.7519 -1.4102
12.6882 -20.4040 -1.0223
12.5502 -20.4610 -1.0212
12.4849 -20.6376 -1.0264
22.2972 -37.8935 -1.9033
27.6128 -48.2707 -2.4178
27.3534 -48.5054 -2.4212
27.0819 -48.7203 -2.4236
24.7143 -45.1112 -2.2334
16.8497 -31.2113 -1.5278
16.6161 -31.2357 -1.5239
14.9425 -28.5109 -1.3829
14.7636 -28.5950 -1.3826
15.9047 -31.2735 -1.5109
15.9479 -31.8403 -1.5341
5.5100 -11.1773 -0.5112
5.4413 -11.2109 -0.5112
10.9821 -22.9751 -1.0858
10.8719 -23.1080 -1.0890
10.7404 -23.1970 -1.0901
10.6824 -23.4479 -1.0991
10.4738 -23.3690 -1.0922
10.3141 -23.3962 -1.0904
10.3381 -23.8458 -1.1090
10.1528 -23.8179 -1.1046
10.0076 -23.8825 -1.1048
9.8791 -23.9878 -1.1069
4.5690 -11.2958 -0.4990
9.7838 -24.6094 -1.1308
4.4115 -11.3036 -0.4968
4.0179 -10.4853 -0.4568
3.9464 -10.4911 -0.4559
4.2349 -11.4700 -0.5009
4.1041 -11.3295 -0.4931
8.9795 -25.2569 -1.1450
8.8200 -25.2992 -1.1445
8.7008 -25.4587 -1.1494
4.1588 -12.4234 -0.5395
4.0793 -12.4392 -0.5391
7.4697 -23.2473 -1.0395
3.8442 -12.2272 -0.5270
3.7632 -12.2314 -0.5261
3.7371 -12.4169 -0.5336
3.6735 -12.4827 -0.5356
3.5750 -12.4292 -0.5321
7.1027 -25.2616 -1.1201
6.9045 -25.1477 -1.1129
6.7397 -25.1510 -1.1111
6.5551 -25.0768 -1.1059
6.3858 -25.0566 -1.1031
6.2134 -25.0206 -1.0997
6.0079 -24.8437 -1.0900
5.8965 -25.0551 -1.0979
5.6987 -24.8990 -1.0892
5.5511 -24.9569 -1.0903
5.3936 -24.9710 -1.0894
5.2309 -24.9586 -1.0874
5.0340 -24.7758 -1.0777
4.8435 -24.6112 -1.0689
4.6918 -24.6375 -1.0688
4.5402 -24.6639 -1.0687
4.3893 -24.6942 -1.0688
3.8143 -22.2532 -0.9582
3.6857 -22.3245 -0.9604
3.5541 -22.3812 -0.9619
3.4315 -22.4994 -0.9663
3.2996 -22.5625 -0.9682
3.1804 -22.7198 -0.9743
3.1369 -23.4558 -1.0063
2.7653 -21.6918 -0.9268
2.6063 -21.4952 -0.9174
2.4589 -21.3768 -0.9114
2.3194 -21.3150 -0.9080
2.1864 -21.3080 -0.9071
2.0492 -21.2544 -0.9041
1.9139 -21.2138 -0.9018
1.7781 -21.1584 -0.8988
1.6431 -21.1022 -0.8959
1.5156 -21.1398 -0.8971
1.3846 -21.1308 -0.8963
1.2464 -20.9953 -0.8899
1.1147 -20.9486 -0.8876
0.9838 -20.9062 -0.8854
0.8498 -20.7741 -0.8793
0.7208 -20.7350 -0.8774
0.5929 -20.7160 -0.8763
0.4625 -20.5725 -0.8699
0.3341 -20.4471 -0.8642
0.2077 -20.3538 -0.8600
0.0825 -20.2788 -0.8567
-0.0419 -20.2220 -0.8541
-0.1500 -18.2323 -0.7663
-0.2611 -18.1761 -0.7638
-0.2354 -11.4092 -0.4648
-0.3047 -11.3816 -0.4637
-0.3734 -11.3435 -0.4621
-0.4467 -11.4389 -0.4664
-0.5179 -11.4579 -0.4674
-0.5879 -11.4495 -0.4672
-0.5799 -10.0762 -0.4066
-0.6449 -10.1233 -0.4088
-0.7067 -10.1142 -0.4086
-0.7679 -10.0987 -0.4081
-0.8322 -10.1227 -0.4094
-0.9057 -10.2468 -0.4151
-0.9829 -10.3932 -0.4219
-1.0537 -10.4575 -0.4250
-1.0229 -9.5598 -0.3854
-1.0799 -9.5384 -0.3848
-1.1283 -9.4473 -0.3810
-1.0981 -8.7364 -0.3497
-1.1500 -8.7166 -0.3491
-1.1993 -8.6787 -0.3477
-1.2477 -8.6376 -0.3462
-1.2999 -8.6248 -0.3460
-1.3376 -8.5200 -0.3417
-1.3803 -8.4524 -0.3390
-1.4324 -8.4458 -0.3391
-1.4854 -8.4437 -0.3394
-1.5361 -8.4285 -0.3392
-1.5618 -8.2805 -0.3329
-1.6055 -8.2345 -0.3313
-1.6523 -8.2059 -0.3305
-1.6987 -8.1770 -0.3296
-1.7491 -8.1674 -0.3297
-1.8024 -8.1712 -0.3303
-1.8728 -8.2496 -0.3344
-1.9118 -8.1883 -0.3322
-1.9339 -8.0589 -0.3268
-1.9795 -8.0313 -0.3261
-2.0209 -7.9880 -0.3247
-2.0516 -7.9049 -0.3215
-2.0962 -7.8777 -0.3208
-2.1458 -7.8695 -0.3210
-2.1712 -7.7744 -0.3173
-2.2148 -7.7465 -0.3166
-2.2637 -7.7375 -0.3168
-2.3163 -7.7407 -0.3176
-2.3687 -7.7426 -0.3184
-2.4215 -7.7451 -0.3192
-2.9609 -9.2730 -0.3907
-3.3070 -10.1428 -0.4320
-3.3673 -10.1167 -0.4317
-2.6981 -7.9407 -0.3312
-2.7455 -7.9202 -0.3310
-2.8446 -8.0464 -0.3377
-2.8909 -8.0203 -0.3373
-2.9025 -7.9002 -0.3325
-2.8523 -7.6184 -0.3201
-2.8947 -7.5895 -0.3195
-2.9344 -7.5539 -0.3187
-3.0104 -7.6110 -0.3223
-3.0854 -7.6629 -0.3256
-3.1372 -7.6558 -0.3262
-3.1842 -7.6364 -0.3262
-3.2208 -7.5928 -0.3250
-3.2638 -7.5646 -0.3247
-3.3126 -7.5500 -0.3249
-3.3608 -7.5341 -0.3251
-3.4082 -7.5160 -0.3253
-3.3712 -7.3144 -0.3165
-3.3817 -7.2203 -0.3129
-3.4542 -7.2589 -0.3158
-3.5048 -7.2502 -0.3164
-3.5651 -7.2608 -0.3180
-3.6211 -7.2621 -0.3192
-3.5971 -7.1042 -0.3125
-3.6570 -7.1140 -0.3141
-3.7043 -7.0985 -0.3144
-3.7459 -7.0721 -0.3142
-3.8280 -7.1212 -0.3179
-3.9099 -7.1677 -0.3214
-4.0427 -7.3045 -0.3295
-4.0640 -7.2377 -0.3274
-4.1350 -7.2595 -0.3298
-4.1470 -7.1778 -0.3269
-4.0638 -6.9349 -0.3158
-4.1124 -6.9202 -0.3163
-4.1883 -6.9504 -0.3192
-4.2168 -6.9016 -0.3180
-4.5114 -7.2834 -0.3392
-4.4270 -7.0499 -0.3284
-4.3453 -6.8262 -0.3182
-4.3670 -6.7683 -0.3165
-4.4779 -6.8476 -0.3221
-4.7420 -7.1557 -0.3399
-4.9567 -7.3812 -0.3535
-5.4473 -8.0058 -0.3885
-10.2789 -14.9152 -0.7610
-10.2925 -14.7404 -0.7550
-10.2668 -14.5130 -0.7461
-10.2882 -14.3555 -0.7410
-10.3274 -14.2250 -0.7373
-12.4404 -16.9176 -0.8885
-10.3216 -13.8560 -0.7241
-10.3252 -13.6848 -0.7181
-10.3593 -13.5561 -0.7145
-10.3652 -13.3927 -0.7089
-10.3751 -13.2368 -0.7037
-10.4108 -13.1158 -0.7005
-10.3171 -12.8351 -0.6883
-10.3440 -12.7080 -0.6846
-12.7732 -14.7457 -0.8226
-7.9096 -9.0163 -0.4906
-8.0046 -9.0125 -0.4932
-12.7947 -14.2324 -0.8062
-12.7938 -14.0568 -0.8005
-12.9075 -14.0081 -0.8023
-13.0092 -13.7753 -0.7978
-13.1321 -13.7357 -0.8003
-13.1849 -13.6225 -0.7983
-13.4143 -13.6906 -0.8075
-13.5206 -13.6307 -0.8089
-13.5806 -13.5242 -0.8075
-24.9274 -23.9306 -1.4875
-25.0216 -23.7277 -1.4843
-25.1222 -23.5321 -1.4816
-25.2001 -23.3164 -1.4776
-25.2845 -23.1081 -1.4741
-25.3791 -22.9104 -1.4713
-25.4603 -22.7017 -1.4679
-25.5256 -22.4803 -1.4635
-25.6148 -22.2813 -1.4607
-25.7177 -22.0951 -1.4588
-25.8383 -21.9246 -1.4579
-25.9303 -21.7303 -1.4555
-26.0524 -21.5619 -1.4549
-26.1455 -21.3700 -1.4527
-26.2497 -21.1878 -1.4512
-26.3651 -21.0152 -1.4504
-26.4967 -20.8555 -1.4505
-11.0665 -8.5981 -0.5798
-11.0255 -8.4582 -0.5746
-10.9244 -8.2745 -0.5662
-10.8517 -8.1152 -0.5594
-10.8041 -7.9766 -0.5540
-10.7132 -7.8083 -0.5464
-10.6490 -7.6619 -0.5403
-10.6828 -7.5872 -0.5396
-10.5787 -7.4159 -0.5315
-10.4400 -7.2235 -0.5216
-10.4957 -7.1672 -0.5222
-10.4541 -7.0451 -0.5176
-10.4972 -6.8883 -0.5154
-9.9884 -6.4669 -0.4864
-10.0111 -6.3947 -0.4855
-10.0493 -6.3326 -0.4855
-10.0973 -6.2766 -0.4859
-10.1280 -6.2099 -0.4856
-12.0265 -7.2737 -0.5816
-11.2414 -6.7046 -0.5390
-11.2961 -6.6436 -0.5397
-11.3297 -6.5702 -0.5393
-11.3568 -6.4931 -0.5387
-11.3904 -6.4199 -0.5383
-11.0768 -6.1537 -0.5205
-11.1711 -5.6784 -0.5143
-11.3594 -5.6868 -0.5219
-11.4039 -5.6218 -0.5224
-28.1957 -13.6916 -1.3456
-28.2665 -13.5124 -1.3450
-28.2061 -13.2714 -1.3380
-28.3105 -13.1090 -1.3391
-28.4250 -12.9508 -1.3408
-28.5158 -12.7815 -1.3414
-28.5991 -12.6087 -1.3416
-28.9344 -12.5451 -1.3541
-29.3288 -12.5029 -1.3694
-28.4007 -11.9017 -1.3213
-28.5388 -11.7542 -1.3244
-28.9539 -11.7180 -1.3408
-29.0225 -11.5390 -1.3406
-28.9243 -11.2949 -1.3326
-28.9577 -11.1036 -1.3310
-29.1571 -10.9754 -1.3372
-29.4694 -10.8870 -1.3488
-29.5751 -10.7203 -1.3506
-29.6168 -10.5302 -1.3495
-29.6044 -10.3217 -1.3459
-29.6048 -10.1185 -1.3430
-29.6417 -9.9284 -1.3419
-29.2654 -9.6030 -1.3216
-29.5131 -9.4841 -1.3303
-29.5488 -9.2959 -1.3293
-29.5957 -9.1115 -1.3289
-29.5229 -8.8911 -1.3230
-28.7901 -8.4780 -1.2867
-29.1670 -8.3949 -1.3017
-29.2449 -8.2234 -1.3029
-29.6725 -8.1475 -1.3202
-29.7837 -7.9818 -1.3231
-29.8988 -7.8164 -1.3261
-29.9520 -7.6343 -1.3264
-29.9566 -7.4400 -1.3245
-29.9521 -7.2440 -1.3222
-29.9260 -7.0436 -1.3190
-29.8625 -6.8356 -1.3142
-29.8415 -6.6383 -1.3114
-29.8397 -6.4460 -1.3095
-29.8092 -6.2482 -1.3064
-29.8078 -6.0572 -1.3046
-29.7092 -5.8476 -1.2985
-29.5757 -5.6330 -1.2909
-29.6028 -5.4502 -1.2906
-16.7715 -2.9798 -0.7133
-16.8446 -2.8863 -0.7158
-29.6981 -4.9044 -1.2906
-29.5886 -4.6999 -1.2844
-29.5773 -4.5123 -1.2826
-21.5409 3.1270 -1.1963
-21.4710 3.2515 -1.1934
-21.4378 3.3812 -1.1927
-21.4038 3.5105 -1.1919
-21.3809 3.6416 -1.1919
-21.3326 3.7682 -1.1904
-21.2845 3.8946 -1.1890
-21.2141 4.0163 -1.1863
-21.2126 4.1510 -1.1877
-21.2210 4.2881 -1.1897
-21.2119 4.4219 -1.1907
-21.1931 4.5538 -1.1912
-21.1599 4.6827 -1.1909
-21.1201 4.8100 -1.1903
-14.8457 3.4758 -0.8261
-21.0352 5.0630 -1.1889
-20.9940 5.1895 -1.1883
-20.9666 5.3195 -1.1886
-20.9906 5.4629 -1.1919
-11.9454 3.1855 -0.6623
-11.9699 3.2708 -0.6649
-20.8875 5.8486 -1.1920
-20.8608 5.9794 -1.1925
-20.8381 6.1115 -1.1934
-20.8384 6.2507 -1.1957
-20.8770 6.4022 -1.2003
-20.8163 6.5236 -1.1990
-20.6019 6.5955 -1.1886
-13.3560 4.3649 -0.7582
-12.8327 4.3687 -0.7300
-12.7858 4.4405 -0.7289
-12.1156 4.2910 -0.6901
-12.0665 4.3571 -0.6888
-12.0321 4.4283 -0.6883
-20.3245 7.6251 -1.1929
-20.2690 7.7464 -1.1924
-20.2276 7.8732 -1.1928
-20.1993 8.0053 -1.1941
-20.1785 8.1406 -1.1958
-20.1365 8.2677 -1.1963
-20.0679 8.3838 -1.1953
-20.0087 8.5036 -1.1948
-19.9232 8.6120 -1.1928
-19.8590 8.7292 -1.1921
-19.7923 8.8452 -1.1913
-19.7385 8.9669 -1.1914
-19.6904 9.0912 -1.1918
-19.6406 9.2148 -1.1922
-19.6233 9.3541 -1.1947
-19.5485 9.4660 -1.1936
-19.4757 9.5787 -1.1927
-19.3817 9.6807 -1.1905
-19.3041 9.7904 -1.1894
-19.2197 9.8963 -1.1878
-19.2931 10.0844 -1.1965
-19.1145 10.1408 -1.1890
-18.9921 10.2257 -1.1851
-18.9895 10.3750 -1.1890
-18.9447 10.5020 -1.1903
-18.8660 10.6102 -1.1894
-18.6921 10.6639 -1.1823
-18.6021 10.7644 -1.1807
-18.5418 10.8819 -1.1811
-18.5150 11.0195 -1.1838
-18.4214 11.1174 -1.1821
-18.3375 11.2208 -1.1810
-18.2674 11.3326 -1.1810
-18.2052 11.4493 -1.1815
-18.1590 11.5763 -1.1831
-18.1128 11.7038 -1.1848
-17.9846 11.7780 -1.1810
-17.8422 11.8418 -1.1763
-17.6375 11.8624 -1.1673
-17.5710 11.9749 -1.1677
-17.5440 12.1148 -1.1709
-17.3671 12.1507 -1.1639
-17.2555 12.2310 -1.1613
-17.1420 12.3093 -1.1586
-17.0178 12.3790 -1.1552
-16.9278 12.4731 -1.1543
-16.9358 12.6401 -1.1603
-16.7711 12.6781 -1.1541
-16.6502 12.7480 -1.1510
-16.5590 12.8401 -1.1501
-16.4689 12.9329 -1.1493
-16.3799 13.0262 -1.1487
-16.2849 13.1146 -1.1476
-16.1600 13.1783 -1.1444
-16.0280 13.2352 -1.1406
-15.9021 13.2962 -1.1373
-15.7966 13.3735 -1.1356
-15.7029 13.4604 -1.1347
-15.6110 13.5487 -1.1340
-15.5080 13.6270 -1.1326
-15.3764 13.6795 -1.1289
-15.2588 13.7435 -1.1264
-15.1565 13.8207 -1.1250
-15.0685 13.9107 -1.1248
-14.9682 13.9893 -1.1237
-14.8567 14.0568 -1.1217
-14.7298 14.1091 -1.1185
-14.6502 14.2061 -1.1191
-14.5663 14.2992 -1.1194
-14.4790 14.3891 -1.1194
-14.4150 14.5024 -1.1214
-14.3349 14.5999 -1.1221
-14.0838 14.5212 -1.1090
-13.9737 14.5857 -1.1073
-13.8490 14.6342 -1.1044
-13.7657 14.7262 -1.1050
-13.6663 14.8009 -1.1042
-13.5369 14.8424 -1.1010
-13.4275 14.9051 -1.0995
-13.3245 14.9746 -1.0985
-13.2179 15.0395 -1.0972
-13.1208 15.1151 -1.0968
-13.0297 15.1976 -1.0970
-12.9446 15.2872 -1.0978
-12.8532 15.3694 -1.0980
-12.7529 15.4410 -1.0975
-12.6283 15.4826 -1.0948
-12.5149 15.5372 -1.0932
-12.4000 15.5895 -1.0914
-12.3054 15.6669 -1.0915
-12.1436 15.6577 -1.0854
-12.0327 15.7128 -1.0841
-11.9204 15.7657 -1.0826
-11.8187 15.8321 -1.0822
-11.7201 15.9027 -1.0820
-11.6153 15.9646 -1.0814
-11.4973 16.0080 -1.0794
-11.3677 16.0343 -1.0764
-11.2479 16.0735 -1.0743
-11.1355 16.1225 -1.0729
-11.0262 16.1756 -1.0719
-10.9223 16.2364 -1.0714
-10.9356 16.4736 -1.0831
-10.6763 16.2990 -1.0667
-10.5994 16.4003 -1.0691
-10.4959 16.4608 -1.0688
-10.3957 16.5266 -1.0690
-10.2978 16.5960 -1.0693
-10.1812 16.6350 -1.0678
-10.0861 16.7091 -1.0686
-9.9686 16.7458 -1.0669
-9.8576 16.7929 -1.0660
-9.6169 16.6154 -1.0504
-9.3570 16.3975 -1.0323
-9.1285 16.2274 -1.0175
-8.9169 16.0814 -1.0044
-8.7511 16.0132 -0.9965
-8.5542 15.8837 -0.9847
-8.3986 15.8265 -0.9777
-8.0563 15.4088 -0.9476
-7.9561 15.4473 -0.9469
-7.8548 15.4833 -0.9462
-7.7615 15.5348 -0.9464
-7.6590 15.5678 -0.9455
-7.5355 15.5570 -0.9418
-7.3935 15.5056 -0.9357
-7.2846 15.5217 -0.9339
-7.1156 15.4066 -0.9239
-7.0036 15.4118 -0.9216
-6.8938 15.4208 -0.9195
-6.7248 15.2937 -0.9090
-6.6296 15.3319 -0.9088
-6.5167 15.3282 -0.9061
-6.3667 15.2343 -0.8979
-6.2678 15.2601 -0.8971
-6.1334 15.1974 -0.8909
-5.9992 15.1317 -0.8846
-5.8990 15.1496 -0.8835
-5.7977 15.1641 -0.8821
-5.6874 15.1536 -0.8794
-5.5753 15.1366 -0.8763
-5.4674 15.1292 -0.8738
-5.3282 15.0317 -0.8659
-5.2191 15.0160 -0.8630
-5.0686 14.8767 -0.8527
-4.9713 14.8895 -0.8516
-4.8721 14.8960 -0.8502
-4.7647 14.8762 -0.8473
-4.6558 14.8489 -0.8439
-4.5496 14.8285 -0.8410
-4.4457 14.8131 -0.8385
-4.3426 14.7989 -0.8361
-4.2322 14.7571 -0.8320
-4.1227 14.7155 -0.8281
-4.0197 14.6943 -0.8253
-3.9130 14.6570 -0.8217
-3.8107 14.6334 -0.8189
-3.6997 14.5732 -0.8141
-3.5983 14.5472 -0.8112
-3.4984 14.5253 -0.8087
-3.3967 14.4931 -0.8056
-3.2807 14.3949 -0.7986
-3.1813 14.3650 -0.7957
-3.0831 14.3374 -0.7930
-2.5759 12.3446 -0.6764
-2.8535 14.1099 -0.7777
-2.7634 14.1095 -0.7767
-2.6772 14.1282 -0.7768
-2.5822 14.0992 -0.7742
-2.4814 14.0341 -0.7696
-2.3926 14.0333 -0.7687
-2.2825 13.9019 -0.7603
-1.8490 11.7066 -0.6333
-2.1017 13.8628 -0.7565
-2.0136 13.8546 -0.7553
-1.9258 13.8470 -0.7541
-1.8358 13.8209 -0.7520
-1.7435 13.7725 -0.7486
-1.6519 13.7244 -0.7452
-1.5591 13.6589 -0.7409
-1.4697 13.6166 -0.7380
-1.2907 13.5094 -0.7309
-1.2066 13.5041 -0.7302
-1.1214 13.4834 -0.7286
-1.0380 13.4811 -0.7281
-0.9528 13.4523 -0.7261
-0.8658 13.3892 -0.7222
-0.7813 13.3544 -0.7199
-0.6978 13.3290 -0.7182
-0.6154 13.3201 -0.7175
-0.5325 13.2957 -0.7159
-0.4492 13.2458 -0.7129
-0.3676 13.2383 -0.7123
-0.2041 13.1730 -0.7084
-0.1230 13.1410 -0.7065
-0.0422 13.1126 -0.7049
0.0382 13.0926 -0.7037
0.1185 13.0891 -0.7036
0.1986 13.0772 -0.7029
0.2790 13.0847 -0.7035
0.3654 13.3013 -0.7159
0.4467 13.2908 -0.7154
0.5231 13.1592 -0.7081
0.6002 13.0769 -0.7036
0.6794 13.0530 -0.7025
0.5596 9.6330 -0.5082
0.6179 9.6164 -0.5075
0.9165 12.9955 -0.7001
0.9952 12.9767 -0.6993
1.0738 12.9574 -0.6986
1.1532 12.9496 -0.6985
1.2324 12.9403 -0.6984
1.3117 12.9315 -0.6984
1.3908 12.9212 -0.6982
1.4713 12.9233 -0.6989
1.5543 12.9448 -0.7006
1.6377 12.9667 -0.7024
1.7177 12.9604 -0.7027
1.7976 12.9525 -0.7028
1.8805 12.9650 -0.7042
1.9624 12.9690 -0.7051
2.0418 12.9557 -0.7050
2.1193 12.9311 -0.7044
2.1951 12.8972 -0.7032
2.2735 12.8796 -0.7029
2.3491 12.8467 -0.7019
2.4256 12.8203 -0.7012
2.5079 12.8238 -0.7023
2.5877 12.8140 -0.7026
2.6638 12.7862 -0.7019
2.7431 12.7735 -0.7021
2.8266 12.7798 -0.7035
2.9107 12.7875 -0.7050
2.9898 12.7724 -0.7052
3.0623 12.7295 -0.7037
3.1408 12.7124 -0.7039
3.2173 12.6871 -0.7035
3.2923 12.6565 -0.7029
3.3709 12.6399 -0.7031
3.4555 12.6450 -0.7046
3.5403 12.6495 -0.7062
3.6151 12.6180 -0.7056
3.6908 12.5898 -0.7053
3.7505 12.5086 -0.7018
3.8207 12.4643 -0.7006
3.9073 12.4730 -0.7025
3.8646 12.0771 -0.6803
3.9408 12.0598 -0.6807
4.0233 12.0609 -0.6823
4.0821 11.9916 -0.6796
4.1864 12.0550 -0.6849
4.3841 12.3782 -0.7059
4.4864 12.4243 -0.7104
4.5736 12.4265 -0.7122
4.6501 12.3991 -0.7122
4.7222 12.3601 -0.7116
4.8034 12.3449 -0.7125
4.8827 12.3244 -0.7130
4.9552 12.2868 -0.7126
5.0362 12.2700 -0.7134
5.1110 12.2380 -0.7134
5.1849 12.2036 -0.7132
5.2644 12.1826 -0.7139
5.3366 12.1446 -0.7135
5.4058 12.0998 -0.7128
5.4906 12.0900 -0.7143
5.5593 12.0443 -0.7135
4.8992 10.4464 -0.6155
4.9688 10.4279 -0.6162
5.0279 10.3873 -0.6156
5.2149 10.6071 -0.6315
5.2402 10.4954 -0.6264
5.3049 10.4639 -0.6265
5.3933 10.4782 -0.6295
5.4750 10.4786 -0.6316
5.5116 10.3928 -0.6283
5.7694 10.7191 -0.6515
6.4193 11.7523 -0.7207
6.5469 11.8131 -0.7272
6.6213 11.7762 -0.7274
6.7003 11.7475 -0.7282
6.7688 11.7001 -0.7278
6.8364 11.6515 -0.7274
6.9062 11.6067 -0.7272
6.9629 11.5402 -0.7256
7.0205 11.4760 -0.7242
7.0755 11.4081 -0.7226
7.1502 11.3721 -0.7231
7.2214 11.3305 -0.7232
7.2800 11.2692 -0.7221
7.3413 11.2126 -0.7213
7.4000 11.1524 -0.7203
7.4494 11.0786 -0.7184
7.4537 10.9395 -0.7120
7.4310 10.7638 -0.7030
7.4980 10.7196 -0.7031
7.5822 10.6995 -0.7049
7.6587 10.6681 -0.7060
7.7346 10.6355 -0.7070
7.8098 10.6015 -0.7080
7.8855 10.5678 -0.7090
7.9568 10.5279 -0.7096
8.0443 10.5090 -0.7118
8.1172 10.4705 -0.7126
8.2164 10.4653 -0.7158
8.3097 10.4514 -0.7185
8.4520 10.4974 -0.7256
8.5453 10.4809 -0.7282
8.6507 10.4783 -0.7319
8.7437 10.4595 -0.7344
8.8580 10.4651 -0.7388
8.9507 10.4439 -0.7413
9.0375 10.4151 -0.7433
9.1223 10.3835 -0.7451
9.2018 10.3452 -0.7465
9.2671 10.2908 -0.7467
9.3469 10.2522 -0.7481
9.4482 10.2364 -0.7513
9.5102 10.1775 -0.7512
9.5491 10.0943 -0.7493
9.6938 10.1221 -0.7561
9.7668 10.0739 -0.7570
9.8438 10.0294 -0.7583
9.9242 9.9879 -0.7598
10.0384 9.9796 -0.7641
10.1201 9.9381 -0.7657
10.1945 9.8890 -0.7668
10.2658 9.8367 -0.7676
10.3557 9.8016 -0.7700
10.4449 9.7652 -0.7722
10.5354 9.7293 -0.7746
10.6930 9.7540 -0.7821
10.7853 9.7176 -0.7846
10.9574 9.7514 -0.7932
11.0253 9.6912 -0.7938
11.1056 9.6417 -0.7954
11.2836 9.6754 -0.8043
11.2978 9.5679 -0.8010
11.4298 9.5599 -0.8064
11.5298 9.5239 -0.8095
11.6252 9.4833 -0.8122
11.7353 9.4537 -0.8160
11.8540 9.4300 -0.8204
11.9085 9.3546 -0.8202
11.9704 9.2850 -0.8205
12.0708 9.2448 -0.8236
12.2029 9.2277 -0.8290
12.3306 9.2058 -0.8341
12.4302 9.1620 -0.8371
12.5048 9.0990 -0.8384
12.6179 9.0635 -0.8425
12.7222 9.0205 -0.8459
12.7912 8.9520 -0.8468
12.8574 8.8813 -0.8476
12.7318 8.6797 -0.8353
12.9994 8.7457 -0.8499
13.0570 8.6685 -0.8502
13.1291 8.6008 -0.8515
13.2546 8.5672 -0.8565
13.3793 8.5319 -0.8613
13.4999 8.4927 -0.8659
13.6171 8.4502 -0.8703
13.7496 8.4160 -0.8757
13.8702 8.3732 -0.8803
14.0474 8.3630 -0.8886
14.1846 8.3272 -0.8943
14.3677 8.3165 -0.9030
14.5069 8.2786 -0.9087
14.6627 8.2487 -0.9156
14.7515 8.1799 -0.9181
14.8627 8.1227 -0.9221
15.0090 8.0834 -0.9283
15.0759 8.0005 -0.9294
13.1285 6.8647 -0.8015
13.1402 6.7685 -0.7996
13.2144 6.7044 -0.8017
15.7260 7.8569 -0.9585
13.0063 6.3995 -0.7834
16.0818 7.7895 -0.9750
15.7435 7.5069 -0.9507
15.9348 7.4784 -0.9598
16.4989 7.6198 -0.9922
16.6517 7.5667 -0.9989
16.7689 7.4962 -1.0033
16.9435 7.4498 -1.0113
17.0310 7.3639 -1.0139
17.1274 7.2811 -1.0171
17.2104 7.1920 -1.0195
17.3013 7.1056 -1.0224
15.7955 6.3746 -0.9275
15.7842 6.2577 -0.9244
15.8074 6.1549 -0.9235
15.8402 6.0560 -0.9233
15.8790 5.9594 -0.9234
15.9958 5.8915 -0.9282
16.0861 5.8130 -0.9315
16.1723 5.7321 -0.9346
16.2487 5.6472 -0.9371
17.7914 6.0609 -1.0276
19.3815 6.4698 -1.1205
16.9383 5.5395 -0.9722
19.9073 6.3748 -1.1472
20.2033 6.3331 -1.1626
20.4728 6.2798 -1.1763
20.5387 6.1624 -1.1779
20.8060 6.1037 -1.1915
21.0648 6.0394 -1.2046
21.3197 5.9712 -1.2175
21.4407 5.8634 -1.2225
22.1158 5.9023 -1.2601
22.1574 5.7680 -1.2604
21.9514 5.5708 -1.2463
21.9755 5.4336 -1.2457
23.1558 5.5747 -1.3127
23.4423 5.4917 -1.3275
22.5225 5.1308 -1.2720
22.5107 4.9830 -1.2695
23.7991 5.1150 -1.3426
24.4526 5.0986 -1.3787
24.7917 5.0107 -1.3965
26.0252 5.0939 -1.4661
26.0825 4.9391 -1.4677
26.3087 4.8149 -1.4790
26.5236 4.6862 -1.4897
26.6552 4.5409 -1.4957
26.6756 4.3761 -1.4953
26.8411 4.2343 -1.5033
26.6503 4.0368 -1.4909
27.0530 3.9281 -1.5126
27.2100 3.6105 -1.5189
27.3020 3.4524 -1.5229
27.7013 2.8141 -1.5414
27.8145 2.6532 -1.5469
28.2121 2.3421 -1.5678
28.6548 1.6720 -1.5902
29.3812 0.8111 -1.6293
28.6879 0.6159 -1.5897
29.5311 0.0902 -1.6372
29.9892 -0.2765 -1.6633
29.9935 -0.6447 -1.6638
30.6721 -1.7905 -1.7049
31.1586 -2.0109 -1.7333
31.3608 -2.2172 -1.7455
31.5169 -2.4227 -1.7552
31.6845 -2.6313 -1.7656
31.3107 -2.7938 -1.7453
30.9123 -2.9495 -1.7236
31.5562 -3.2065 -1.7614
31.5329 -3.3997 -1.7612
31.2436 -3.5626 -1.7459
32.4226 -3.8988 -1.8146
32.5565 -4.1178 -1.8237
31.4905 -4.1793 -1.7641
32.6786 -4.5413 -1.8337
30.4696 -4.4248 -1.7086
31.2207 -4.7298 -1.7533
32.8094 -5.1768 -1.8464
32.7799 -5.3785 -1.8466
32.7089 -5.5731 -1.8444
32.8678 -5.8080 -1.8556
32.8610 -6.0149 -1.8573
33.2590 -6.2990 -1.8824
29.5632 -5.7867 -1.6709
27.7853 -5.6157 -1.5699
32.8814 -6.8567 -1.8676
30.0842 -6.4659 -1.7076
29.6862 -6.5712 -1.6868
30.8310 -7.0234 -1.7558
30.5997 -7.1685 -1.7449
30.6454 -7.3779 -1.7502
30.5995 -7.5658 -1.7502
35.5797 -9.0298 -2.0447
35.7033 -9.2947 -2.0552
35.4874 -9.4714 -2.0459
35.2716 -9.6460 -2.0367
36.6144 -10.2553 -2.1194
36.7533 -10.5378 -2.1314
37.2398 -10.9251 -2.1640
37.1003 -11.1318 -2.1598
37.0714 -11.3716 -2.1622
37.1924 -11.6589 -2.1736
37.2466 -11.9274 -2.1811
37.7269 -12.3370 -2.2142
38.0189 -12.6912 -2.2363
35.9019 -12.2297 -2.1140
35.8676 -12.4642 -2.1165
37.0891 -13.1444 -2.1947
37.6950 -13.6201 -2.2362
37.6463 -13.8643 -2.2384
37.7905 -14.1813 -2.2523
37.6673 -14.3994 -2.2501
37.4406 -14.5766 -2.2418
38.8707 -15.4088 -2.3346
39.5225 -15.9486 -2.3804
39.5246 -16.2322 -2.3865
40.1160 -16.7636 -2.4291
35.5122 -15.0959 -2.1514
35.3557 -15.2861 -2.1475
40.6990 -17.8942 -2.4849
36.2655 -16.2107 -2.2160
36.3045 -16.4962 -2.2246
37.9600 -17.5304 -2.3346
37.2335 -17.4728 -2.2958
37.1869 -17.7302 -2.2996
37.4889 -18.1574 -2.3256
37.6276 -18.5105 -2.3415
38.2993 -19.1337 -2.3914
38.2364 -19.3964 -2.3949
39.1178 -20.1464 -2.4588
39.1058 -20.4448 -2.4660
39.8068 -21.1234 -2.5192
10.4306 -6.2060 -0.6495
38.1829 -23.6926 -2.5120
39.3262 -25.0758 -2.6087
17.1359 -11.0723 -1.1188
17.0610 -11.1729 -1.1183
16.9913 -11.2768 -1.1183
16.5838 -11.1535 -1.0951
16.3418 -11.1369 -1.0832
16.3044 -11.2585 -1.0854
16.2350 -11.3584 -1.0854
16.3328 -11.5767 -1.0971
16.1411 -11.7410 -1.0937
15.8791 -11.7001 -1.0803
15.8054 -11.7961 -1.0802
16.3459 -12.3565 -1.1238
15.6642 -11.9928 -1.0805
15.3970 -11.9388 -1.0666
15.2874 -12.0046 -1.0640
15.1743 -12.0671 -1.0612
15.0378 -12.1099 -1.0566
14.9733 -12.2101 -1.0574
14.8111 -12.2299 -1.0510
14.7097 -12.2988 -1.0491
14.5548 -12.3217 -1.0432
13.5080 -11.5783 -0.9705
13.3357 -11.5732 -0.9629
13.1797 -11.5804 -0.9565
13.7401 -12.2232 -1.0045
5.8227 -5.2412 -0.4051
5.7616 -5.2506 -0.4029
5.7440 -5.2994 -0.4041
5.7369 -5.3584 -0.4060
12.5082 -11.8339 -0.9380
12.3373 -11.8165 -0.9303
12.0947 -11.7272 -0.9169
12.0375 -11.8159 -0.9181
11.9619 -11.8867 -0.9179
11.8733 -11.9443 -0.9166
11.8585 -12.0768 -0.9214
12.4173 -12.8023 -0.9730
11.8379 -12.3555 -0.9319
11.7275 -12.3916 -0.9291
12.2722 -13.1279 -0.9807
11.6883 -12.6579 -0.9386
11.5963 -12.7139 -0.9374
12.2477 -13.5949 -0.9993
11.4182 -12.8313 -0.9356
11.1752 -12.7144 -0.9215
10.9739 -12.6409 -0.9108
10.8877 -12.6982 -0.9101
10.7902 -12.7419 -0.9084
11.5770 -13.8427 -0.9850
10.7144 -12.9719 -0.9157
10.5797 -12.9701 -0.9107
10.5144 -13.0526 -0.9120
10.4689 -13.1607 -0.9152
10.4841 -13.3472 -0.9240
10.4026 -13.4120 -0.9241
10.3159 -13.4700 -0.9237
10.2800 -13.5952 -0.9281
10.1659 -13.6172 -0.9252
10.0165 -13.5901 -0.9189
9.9200 -13.6336 -0.9177
9.8268 -13.6812 -0.9168
9.6647 -13.6313 -0.9091
9.6250 -13.7533 -0.9135
9.5495 -13.8253 -0.9144
9.6213 -14.1138 -0.9302
9.6538 -14.3499 -0.9424
16.8664 -25.4117 -1.6922
13.8893 -21.2063 -1.3998
13.7047 -21.2073 -1.3941
16.1940 -25.4012 -1.6709
16.1223 -25.6345 -1.6799
12.6864 -20.4471 -1.3267
12.5679 -20.5365 -1.3275
15.3646 -25.4576 -1.6487
15.1560 -25.4639 -1.6430
14.9424 -25.4591 -1.6366
14.8029 -25.5797 -1.6385
13.9260 -24.4082 -1.5560
13.6585 -24.2843 -1.5424
13.4899 -24.3328 -1.5401
13.3049 -24.3502 -1.5359
6.3467 -11.7826 -0.7202
6.3047 -11.8786 -0.7239
6.1813 -11.8207 -0.7177
6.2681 -12.1682 -0.7375
11.7571 -23.1797 -1.4362
11.5134 -23.0486 -1.4233
11.2585 -22.8886 -1.4087
11.0257 -22.7667 -1.3967
10.8115 -22.6780 -1.3869
10.6013 -22.5930 -1.3774
10.4809 -22.6975 -1.3799
10.4095 -22.9113 -1.3893
10.3001 -23.0450 -1.3936
10.2063 -23.2165 -1.4004
10.0843 -23.3264 -1.4033
9.9331 -23.3694 -1.4022
9.7511 -23.3378 -1.3965
9.6013 -23.3815 -1.3956
9.4337 -23.3807 -1.3919
4.4576 -11.2407 -0.6469
4.3788 -11.2427 -0.6454
8.5197 -22.2885 -1.3152
8.3806 -22.3348 -1.3149
4.4884 -12.1834 -0.6976
7.9720 -22.0650 -1.2925
4.3678 -12.3204 -0.7025
7.6547 -22.0291 -1.2846
7.5194 -22.0757 -1.2846
4.1852 -12.5332 -0.7106
4.1063 -12.5529 -0.7103
4.1014 -12.8032 -0.7237
3.8708 -12.3432 -0.6948
3.8105 -12.4173 -0.6978
3.7801 -12.5935 -0.7069
3.6851 -12.5561 -0.7033
3.6597 -12.7589 -0.7140
3.6206 -12.9215 -0.7223
5.9839 -21.8818 -1.2484
4.2742 -16.0114 -0.9013
5.6961 -21.8811 -1.2442
5.5509 -21.8730 -1.2417
5.4099 -21.8795 -1.2401
5.1327 -21.3183 -1.2054
5.0477 -21.5457 -1.2169
4.8243 -21.1762 -1.1936
4.6333 -20.9295 -1.1775
4.5469 -21.1538 -1.1889
4.4071 -21.1334 -1.1861
4.2751 -21.1492 -1.1855
4.1160 -21.0252 -1.1768
3.9848 -21.0392 -1.1762
3.6953 -20.1863 -1.1256
3.4861 -19.7258 -1.0978
3.4049 -19.9811 -1.1112
3.2713 -19.9346 -1.1074
3.1304 -19.8369 -1.1006
2.9976 -19.7827 -1.0964
2.8744 -19.7889 -1.0958
2.7216 -19.5807 -1.0828
2.5965 -19.5594 -1.0807
2.3657 -18.6983 -1.0305
2.2827 -18.9772 -1.0457
2.1626 -18.9591 -1.0438
2.0419 -18.9323 -1.0416
1.9066 -18.7557 -1.0308
1.8265 -19.1348 -1.0518
1.6729 -18.7399 -1.0286
1.5737 -18.9409 -1.0395
1.4550 -18.9183 -1.0377
1.3315 -18.8223 -1.0318
1.2158 -18.8262 -1.0315
1.0984 -18.8024 -1.0298
0.9722 -18.6004 -1.0179
0.8516 -18.4654 -1.0099
0.7336 -18.3535 -1.0033
0.6179 -18.2659 -0.9981
0.5002 -18.0627 -0.9864
0.3885 -18.0275 -0.9842
0.2756 -17.8808 -0.9757
0.1648 -17.7634 -0.9690
0.0555 -17.6672 -0.9635
-0.0528 -17.6383 -0.9619
-0.1609 -17.6316 -0.9615
-0.2682 -17.5734 -0.9583
-0.3755 -17.5435 -0.9567
-0.4826 -17.5229 -0.9557
-0.5908 -17.5395 -0.9568
-0.6990 -17.5516 -0.9577
-0.8074 -17.5629 -0.9586
-0.9165 -17.5825 -0.9600
-1.0268 -17.6174 -0.9624
-1.1364 -17.6347 -0.9637
-1.2464 -17.6533 -0.9652
-1.3576 -17.6832 -0.9674
-1.4594 -17.5939 -0.9628
-1.5644 -17.5518 -0.9609
-1.6698 -17.5180 -0.9595
-1.5848 -15.6163 -0.8516
-1.8609 -17.2768 -0.9470
-1.8992 -15.8104 -0.8645
-2.0907 -16.5453 -0.9073
-2.1572 -16.2689 -0.8922
-1.3623 -9.8228 -0.5234
-2.3290 -16.0505 -0.8812
-2.4226 -16.0044 -0.8794
-2.4869 -15.7742 -0.8671
-1.4190 -8.6662 -0.4589
-1.4673 -8.6288 -0.4573
-1.5176 -8.6049 -0.4564
-1.5677 -8.5807 -0.4556
-1.6251 -8.5964 -0.4571
-1.6750 -8.5716 -0.4562
-1.6911 -8.3811 -0.4458
-1.7123 -8.2259 -0.4374
-1.7689 -8.2435 -0.4390
-1.8123 -8.2004 -0.4372
-1.8701 -8.2222 -0.4391
-1.9107 -8.1688 -0.4367
-1.9491 -8.1083 -0.4338
-1.9953 -8.0817 -0.4330
-2.0428 -8.0616 -0.4325
-2.0855 -8.0228 -0.4310
-2.1169 -7.9433 -0.4271
-2.1751 -7.9648 -0.4291
-2.2236 -7.9504 -0.4291
-2.2556 -7.8780 -0.4256
-2.2909 -7.8200 -0.4230
-2.3363 -7.7972 -0.4225
-2.3818 -7.7750 -0.4220
-2.4339 -7.7746 -0.4229
-3.0889 -9.6554 -0.5359
-3.0947 -9.4730 -0.5262
-2.9251 -8.7720 -0.4854
-2.7628 -8.1198 -0.4473
-2.7804 -8.0103 -0.4418
-2.8212 -7.9695 -0.4403
-2.8632 -7.9333 -0.4392
-2.8939 -7.8669 -0.4363
-2.9281 -7.8116 -0.4340
-2.9585 -7.7478 -0.4312
-2.9947 -7.7006 -0.4295
-3.0324 -7.6580 -0.4280
-3.0696 -7.6152 -0.4265
-3.1333 -7.6377 -0.4291
-3.1686 -7.5907 -0.4274
-3.1909 -7.5142 -0.4238
-3.2068 -7.4248 -0.4195
-3.2539 -7.4087 -0.4198
-3.2989 -7.3876 -0.4197
-3.2925 -7.2536 -0.4126
-3.3010 -7.1554 -0.4077
-3.3473 -7.1404 -0.4081
-3.4040 -7.1468 -0.4098
-3.5083 -7.2506 -0.4177
-3.5386 -7.2003 -0.4159
-3.5939 -7.2008 -0.4173
-3.6353 -7.1732 -0.4169
-3.6532 -7.1002 -0.4137
-3.7064 -7.0962 -0.4149
-3.7667 -7.1051 -0.4169
-3.8670 -7.1874 -0.4237
-3.9752 -7.2809 -0.4313
-4.0910 -7.3847 -0.4397
-4.1377 -7.3621 -0.4398
-4.1318 -7.2472 -0.4340
-4.0852 -7.0645 -0.4237
-4.1578 -7.0892 -0.4270
-4.2242 -7.1022 -0.4295
-4.2574 -7.0590 -0.4284
-4.3115 -7.0507 -0.4296
-4.3479 -7.0130 -0.4288
-4.3185 -6.8713 -0.4211
-4.3531 -6.8329 -0.4203
-4.4112 -6.8312 -0.4220
-4.6894 -7.1648 -0.4465
-5.0083 -7.5501 -0.4748
-5.3594 -7.9723 -0.5058
-10.2117 -14.9849 -0.9900
-10.2717 -14.8759 -0.9868
-10.2437 -14.6425 -0.9750
-10.2889 -14.5166 -0.9706
-10.3026 -14.3486 -0.9633
-10.3394 -14.2149 -0.9584
-10.3393 -14.0331 -0.9501
-10.3679 -13.8926 -0.9446
-10.3415 -13.6814 -0.9341
-10.3828 -13.5622 -0.9302
-10.3495 -13.3483 -0.9194
-10.3344 -13.1613 -0.9105
-10.3702 -13.0414 -0.9064
-10.3361 -12.8360 -0.8961
-10.3332 -12.6726 -0.8888
-10.1043 -12.2379 -0.8615
-10.1235 -12.1090 -0.8565
-10.2453 -12.1031 -0.8607
-10.2765 -11.9900 -0.8570
-10.2393 -11.7993 -0.8474
-7.9418 -9.0405 -0.6436
-7.9978 -8.9923 -0.6436
-10.1647 -11.2869 -0.8228
-10.1032 -11.0812 -0.8118
-10.0890 -10.9303 -0.8049
-10.0114 -10.7136 -0.7929
-9.9321 -10.4989 -0.7810
-13.1234 -13.7012 -1.0376
-13.2308 -13.6447 -1.0395
-13.4479 -13.6994 -1.0504
-13.4677 -13.5522 -1.0452
-13.6370 -13.5551 -1.0521
-13.8688 -13.6173 -1.0640
-14.1736 -13.7467 -1.0815
-17.0684 -16.3512 -1.3025
-17.2025 -16.2785 -1.3051
-17.4093 -16.2728 -1.3135
-17.5579 -16.2110 -1.3173
-17.7309 -16.1703 -1.3229
-17.7326 -15.9736 -1.3155
-17.8481 -15.8805 -1.3169
-17.9730 -15.7950 -1.3190
