3.3737 -8.2623 -1.7866
3.3980 -8.4701 -1.8280
3.4242 -8.6896 -1.8718
3.1938 -8.2526 -1.7711
2.9659 -7.8050 -1.6687
3.0195 -8.0957 -1.7284
2.9445 -8.0450 -1.7133
2.8895 -8.0473 -1.7099
2.8475 -8.0861 -1.7145
2.8659 -8.3007 -1.7573
2.7494 -8.1241 -1.7153
2.6268 -7.9214 -1.6679
2.5839 -7.9551 -1.6717
2.5424 -7.9941 -1.6767
2.6294 -8.4474 -1.7707
2.5188 -8.2703 -1.7294
2.4532 -8.2358 -1.7187
2.4199 -8.3100 -1.7314
2.4151 -8.4877 -1.7661
1.4089 -5.0635 -1.0342
2.4919 -9.1852 -1.9082
1.3051 -4.9232 -1.0009
1.2690 -4.9083 -0.9961
2.0992 -8.3411 -1.7203
2.0333 -8.2939 -1.7077
1.9854 -8.3186 -1.7103
1.1511 -4.9504 -0.9987
1.1396 -5.0415 -1.0163
1.1124 -5.0656 -1.0200
1.0933 -5.1289 -1.0318
1.0717 -5.1835 -1.0419
1.0437 -5.2092 -1.0459
1.0097 -5.2049 -1.0437
0.9596 -5.1137 -1.0234
0.9179 -5.0626 -1.0115
0.8576 -4.9002 -0.9766
1.3442 -7.9834 -1.6167
1.3065 -8.0611 -1.6311
1.2540 -8.0496 -1.6271
1.2321 -8.2422 -1.6655
1.1774 -8.2205 -1.6594
0.6687 -4.8703 -0.9645
0.6356 -4.8500 -0.9595
1.0569 -8.4907 -1.7111
0.9634 -8.1458 -1.6386
0.9286 -8.2878 -1.6667
0.8838 -8.3508 -1.6785
0.9659 -9.7014 -1.9558
0.8179 -8.7561 -1.7599
0.7617 -8.7327 -1.7541
0.8091 -9.9899 -2.0118
0.7434 -9.9351 -1.9996
0.6680 -9.7284 -1.9562
0.6141 -9.8262 -1.9755
0.5790 -10.2797 -2.0679
0.5140 -10.2459 -2.0603
0.4490 -10.1989 -2.0500
0.3770 -9.9499 -1.9984
0.3102 -9.7689 -1.9608
0.2499 -9.7579 -1.9582
0.1901 -9.7641 -1.9592
0.1297 -9.7259 -1.9512
0.0701 -9.7413 -1.9542
0.0103 -9.7562 -1.9572
-0.0498 -9.8041 -1.9670
-0.1048 -9.3579 -1.8756
-0.1624 -9.3718 -1.8786
-0.2139 -9.1179 -1.8268
-0.2741 -9.2584 -1.8559
-0.3328 -9.3094 -1.8668
-0.3898 -9.3033 -1.8660
-0.4408 -9.1765 -1.8405
-0.5000 -9.2254 -1.8511
-0.5565 -9.2212 -1.8509
-0.6059 -9.1111 -1.8290
-0.6541 -9.0017 -1.8073
-0.7274 -9.2250 -1.8541
-0.7885 -9.2741 -1.8652
-0.8520 -9.3403 -1.8798
-0.9193 -9.4372 -1.9009
-0.9791 -9.4499 -1.9048
-1.0383 -9.4554 -1.9072
-1.0766 -9.2796 -1.8722
-1.1518 -9.4216 -1.9029
-1.1567 -9.0043 -1.8182
-1.2654 -9.3922 -1.8999
-1.3227 -9.3823 -1.8995
-1.3818 -9.3846 -1.9017
-1.4416 -9.3905 -1.9048
-1.5017 -9.3970 -1.9080
-1.5575 -9.3769 -1.9058
-1.6167 -9.3769 -1.9078
-1.6837 -9.4198 -1.9188
-1.7406 -9.4045 -1.9178
-1.8045 -9.4263 -1.9246
-1.9368 -9.7908 -2.0032
-0.9995 -4.9043 -0.9828
-1.0322 -4.9105 -0.9854
-1.0644 -4.9137 -0.9874
-1.0983 -4.9243 -0.9910
-1.1336 -4.9394 -0.9956
-1.1650 -4.9371 -0.9967
-1.2022 -4.9584 -1.0027
-1.2345 -4.9585 -1.0043
-1.2671 -4.9594 -1.0061
-1.3008 -4.9639 -1.0087
-1.3365 -4.9757 -1.0129
-1.3720 -4.9853 -1.0167
-1.4071 -4.9928 -1.0202
-1.4429 -5.0020 -1.0240
-1.4827 -5.0240 -1.0306
-1.5178 -5.0289 -1.0336
-1.5538 -5.0363 -1.0372
-1.5938 -5.0557 -1.0435
-1.6311 -5.0654 -1.0477
-1.6656 -5.0655 -1.0499
-1.7079 -5.0886 -1.0571
-1.7489 -5.1067 -1.0634
-1.7906 -5.1255 -1.0698
-1.8365 -5.1550 -1.0786
-1.8868 -5.1952 -1.0899
-1.9286 -5.2102 -1.0957
-1.9747 -5.2358 -1.1039
-2.0212 -5.2611 -1.1122
-2.0667 -5.2823 -1.1196
-2.1216 -5.3259 -1.1321
-2.1715 -5.3555 -1.1415
-2.2148 -5.3674 -1.1471
-2.2595 -5.3817 -1.1534
-2.3044 -5.3956 -1.1596
-2.3461 -5.4012 -1.1640
-2.4077 -5.4512 -1.1785
-2.4492 -5.4542 -1.1825
-2.4973 -5.4711 -1.1897
-2.5469 -5.4903 -1.1976
-2.5935 -5.5021 -1.2038
-2.6416 -5.5161 -1.2106
-2.6887 -5.5271 -1.2168
-2.7356 -5.5368 -1.2229
-2.7810 -5.5427 -1.2281
-2.8372 -5.5691 -1.2381
-2.8794 -5.5673 -1.2418
-2.9267 -5.5746 -1.2476
-2.9913 -5.6136 -1.2608
-3.0383 -5.6184 -1.2663
-3.1015 -5.6520 -1.2785
-3.1128 -5.5910 -1.2687
-3.2459 -5.7466 -1.3099
-3.3235 -5.8005 -1.3273
-5.0397 -8.6680 -2.0126
-5.0828 -8.6200 -2.0086
-5.1331 -8.5845 -2.0076
-5.0820 -8.3820 -1.9666
-5.1205 -8.3298 -1.9616
-5.1767 -8.3065 -1.9636
-5.2213 -8.2647 -1.9612
-5.1344 -8.0180 -1.9090
-4.9418 -7.6142 -1.8180
-4.8715 -7.4062 -1.7744
-5.3013 -7.9523 -1.9164
-5.3242 -7.8815 -1.9070
-5.3675 -7.8414 -1.9052
-5.2808 -7.6144 -1.8567
-5.3393 -7.5987 -1.8610
-5.4017 -7.5881 -1.8666
-5.4591 -7.5699 -1.8704
-5.5054 -7.5363 -1.8704
-5.5813 -7.5425 -1.8806
-5.6398 -7.5246 -1.8849
-5.7120 -7.5241 -1.8937
-5.7622 -7.4944 -1.8951
-5.8063 -7.4566 -1.8945
-5.8531 -7.4223 -1.8949
-5.8980 -7.3855 -1.8947
-5.9389 -7.3438 -1.8933
-5.9776 -7.2997 -1.8913
-6.0129 -7.2516 -1.8883
-6.0453 -7.2003 -1.8845
-6.0798 -7.1519 -1.8814
-6.1185 -7.1085 -1.8798
-6.1588 -7.0671 -1.8788
-6.1949 -7.0211 -1.8766
-6.2313 -6.9757 -1.8746
-6.2451 -6.9054 -1.8658
-6.2794 -6.8582 -1.8634
-6.3054 -6.8023 -1.8585
-6.3436 -6.7600 -1.8575
-6.3431 -6.6769 -1.8451
-6.3228 -6.5743 -1.8270
-6.3432 -6.5151 -1.8212
-6.3735 -6.4663 -1.8184
-6.4075 -6.4215 -1.8168
-6.4440 -6.3793 -1.8160
-6.4760 -6.3328 -1.8139
-6.5070 -6.2854 -1.8117
-6.5369 -6.2373 -1.8093
-6.5651 -6.1877 -1.8065
-6.5950 -6.1399 -1.8043
-6.6225 -6.0901 -1.8015
-6.6467 -6.0375 -1.7979
-6.6748 -5.9887 -1.7955
-6.6990 -5.9366 -1.7920
-6.7191 -5.8812 -1.7876
-6.7535 -5.8386 -1.7872
-6.7833 -5.7920 -1.7856
-6.8030 -5.7370 -1.7814
-6.8320 -5.6901 -1.7798
-6.8562 -5.6394 -1.7770
-6.8838 -5.5916 -1.7752
-6.9157 -5.5475 -1.7746
-6.9227 -5.4836 -1.7675
-6.9532 -5.4387 -1.7667
-6.9786 -5.3899 -1.7647
-7.0030 -5.3404 -1.7625
-7.0247 -5.2891 -1.7597
-7.0491 -5.2401 -1.7577
-7.0812 -5.1967 -1.7577
-7.1058 -5.1480 -1.7559
-7.1197 -5.0918 -1.7515
-7.1324 -5.0350 -1.7468
-7.1535 -4.9845 -1.7444
-7.1767 -4.9355 -1.7426
-7.2101 -4.8935 -1.7434
-7.2326 -4.8443 -1.7416
-7.2508 -4.7923 -1.7388
-7.2595 -4.7343 -1.7338
-7.2555 -4.6685 -1.7257
-7.2741 -4.6176 -1.7233
-7.2690 -4.5521 -1.7153
-7.3010 -4.5100 -1.7163
-7.3126 -4.4554 -1.7125
-7.3172 -4.3969 -1.7071
-7.3499 -4.3554 -1.7085
-7.3807 -4.3127 -1.7095
-7.4019 -4.2644 -1.7083
-7.4118 -4.2097 -1.7044
-7.4238 -4.1565 -1.7012
-7.4294 -4.1000 -1.6966
-7.4286 -4.0403 -1.6906
-7.4403 -3.9877 -1.6876
-7.4335 -3.9255 -1.6803
-7.4296 -3.8654 -1.6739
-7.4200 -3.8027 -1.6663
-7.4196 -3.7452 -1.6609
-7.4258 -3.6914 -1.6570
-7.4166 -3.6302 -1.6498
-7.3893 -3.5609 -1.6386
-7.3933 -3.5071 -1.6345
-7.4280 -3.4679 -1.6375
-7.3877 -3.3940 -1.6237
-7.4218 -3.3547 -1.6267
-7.4234 -3.3007 -1.6225
-7.4453 -3.2559 -1.6229
-7.4814 -3.2171 -1.6265
-7.4522 -3.1506 -1.6156
-7.4742 -3.1059 -1.6163
-7.4731 -3.0519 -1.6118
-7.4981 -3.0085 -1.6132
-7.5200 -2.9639 -1.6140
-7.5235 -2.9120 -1.6108
-7.5137 -2.8554 -1.6048
-7.5109 -2.8017 -1.6004
-7.5611 -2.7677 -1.6076
-7.5770 -2.7209 -1.6074
-7.5815 -2.6701 -1.6048
-7.5866 -2.6197 -1.6024
-7.5302 -2.5487 -1.5867
-7.5810 -2.5141 -1.5944
-7.5926 -2.4663 -1.5935
-7.6104 -2.4206 -1.5942
-7.6326 -2.3762 -1.5958
-7.6479 -2.3296 -1.5960
-7.6536 -2.2801 -1.5942
-7.6477 -2.2274 -1.5899
-7.6499 -2.1772 -1.5875
-7.6603 -2.1294 -1.5869
-7.6761 -2.0831 -1.5875
-7.6802 -2.0337 -1.5857
-7.7030 -1.9893 -1.5879
-7.7160 -1.9422 -1.5881
-7.7258 -1.8944 -1.5877
-7.7383 -1.8471 -1.5879
-7.7237 -1.7937 -1.5825
-7.7279 -1.7447 -1.5811
-7.7403 -1.6977 -1.5815
-7.7487 -1.6498 -1.5811
-7.7443 -1.5992 -1.5781
-7.7511 -1.5511 -1.5775
-7.7643 -1.5043 -1.5783
-7.7657 -1.4551 -1.5767
-7.7581 -1.4045 -1.5733
-7.7588 -1.3555 -1.5716
-7.7583 -1.3064 -1.5698
-7.7700 -1.2594 -1.5706
-7.7747 -1.2113 -1.5700
-7.7326 -1.1562 -1.5598
-7.7615 -0.9664 -1.5604
-7.8092 -0.9237 -1.5690
-7.7962 -0.8737 -1.5652
-7.9358 -0.8400 -1.5929
-7.8752 -0.3960 -1.5735
-7.8168 -0.3450 -1.5610
-7.8188 -0.2971 -1.5610
-7.8067 -0.2487 -1.5582
-7.8140 -0.2009 -1.5594
-7.8288 -0.1532 -1.5622
-7.8286 -0.1052 -1.5620
-7.8144 -0.0570 -1.5590
-7.8254 -0.0091 -1.5612
-7.8214 0.0389 -1.5604
-7.8034 0.0867 -1.5568
-7.9241 0.1367 -1.5817
-7.8287 0.5201 -1.5654
-7.8303 0.5685 -1.5664
-7.8032 0.6146 -1.5616
-7.7690 0.6599 -1.5554
-7.7472 0.7060 -1.5518
-7.7311 0.7524 -1.5493
-1.0968 0.1101 -0.1824
-1.1068 0.1180 -0.1846
-7.7509 0.8986 -1.5566
-7.7482 0.9465 -1.5572
-7.7121 0.9902 -1.5510
-7.7117 1.0382 -1.5522
-7.7013 1.0850 -1.5514
-1.0376 0.0555 -0.1830
-0.9690 0.0577 -0.1681
-1.0027 0.0659 -0.1755
-0.9974 0.0717 -0.1745
-0.9989 0.0780 -0.1749
-0.9799 0.0825 -0.1708
-0.9891 0.0894 -0.1730
-0.9934 0.0960 -0.1740
-0.9957 0.1024 -0.1747
-0.9980 0.1088 -0.1753
-0.9886 0.1139 -0.1734
-0.9869 0.1198 -0.1732
-0.9978 0.1274 -0.1757
-0.9853 0.1319 -0.1732
-0.9835 0.1378 -0.1730
-0.9846 0.1442 -0.1734
-0.9847 0.1503 -0.1736
-0.9866 0.1568 -0.1743
-0.9857 0.1629 -0.1743
-0.9837 0.1688 -0.1740
-0.9711 0.1727 -0.1715
-0.9239 0.1701 -0.1612
-0.9718 0.1852 -0.1721
-1.0013 0.1972 -0.1790
-0.9799 0.1993 -0.1745
-0.9290 0.1948 -0.1634
-0.9803 0.2119 -0.1751
-0.9780 0.2177 -0.1749
-0.9805 0.2246 -0.1757
-0.9734 0.2292 -0.1745
-0.9700 0.2347 -0.1740
-0.9771 0.2428 -0.1760
-0.9037 0.2304 -0.1597
-0.9561 0.2501 -0.1719
-0.9612 0.2577 -0.1734
-0.9614 0.2641 -0.1738
-0.9655 0.2716 -0.1751
-0.9638 0.2775 -0.1751
-0.9620 0.2834 -0.1751
-0.9594 0.2890 -0.1749
-0.9576 0.2949 -0.1749
-0.9045 0.2846 -0.1632
-0.9557 0.3073 -0.1753
-0.9492 0.3116 -0.1743
-0.9537 0.3196 -0.1757
-0.9518 0.3254 -0.1757
-0.9544 0.3329 -0.1768
-0.9523 0.3387 -0.1768
-0.9410 0.3412 -0.1747
-0.9481 0.3504 -0.1768
-0.9121 0.3434 -0.1689
-0.9209 0.3532 -0.1715
-0.9260 0.3617 -0.1732
-0.9238 0.3674 -0.1732
-0.9287 0.3760 -0.1749
-0.9165 0.3776 -0.1725
-0.9114 0.3821 -0.1719
-0.9100 0.3880 -0.1721
-0.8959 0.3885 -0.1693
-0.8900 0.3924 -0.1685
-0.9062 0.4063 -0.1730
-0.8806 0.4013 -0.1674
-0.8852 0.4100 -0.1691
-6.5875 3.1096 -1.5482
-6.5657 3.1487 -1.5475
-6.5252 3.1787 -1.5424
-6.5020 3.2169 -1.5416
-6.4787 3.2550 -1.5407
-6.4525 3.2916 -1.5392
-6.4305 3.3302 -1.5388
-6.4220 3.3760 -1.5418
-6.3943 3.4117 -1.5401
-6.3569 3.4420 -1.5360
-6.3382 3.4823 -1.5367
-6.3244 3.5254 -1.5386
-6.3035 3.5647 -1.5388
-6.2663 3.5945 -1.5349
-6.2331 3.6265 -1.5322
-6.2150 3.6672 -1.5332
-6.1789 3.6972 -1.5298
-6.1561 3.7351 -1.5298
-6.1398 3.7769 -1.5315
-6.1173 3.8150 -1.5317
-6.1020 3.8577 -1.5339
-6.0840 3.8987 -1.5354
-6.0608 3.9365 -1.5356
-6.0251 3.9661 -1.5326
-5.9998 4.0025 -1.5324
-5.9752 4.0392 -1.5324
-5.9527 4.0774 -1.5330
-5.9283 4.1144 -1.5332
-5.9030 4.1507 -1.5332
-5.8774 4.1869 -1.5332
-5.8484 4.2206 -1.5324
-5.8153 4.2512 -1.5305
-5.7907 4.2880 -1.5309
-5.7666 4.3252 -1.5315
-5.7439 4.3634 -1.5326
-5.7108 4.3938 -1.5309
-5.6853 4.4300 -1.5313
-5.6503 4.4587 -1.5292
-5.6099 4.4829 -1.5255
-5.5899 4.5234 -1.5277
-5.5643 4.5595 -1.5283
-5.5257 4.5848 -1.5253
-5.4974 4.6186 -1.5253
-5.4787 4.6605 -1.5281
-5.4537 4.6972 -1.5292
-5.4306 4.7357 -1.5309
-5.3956 4.7638 -1.5292
-5.3604 4.7916 -1.5275
-5.3244 4.8185 -1.5255
-5.2868 4.8438 -1.5232
-5.2592 4.8782 -1.5238
-5.2284 4.9097 -1.5236
-5.1975 4.9410 -1.5234
-5.1600 4.9660 -1.5213
-5.1316 4.9996 -1.5219
-5.1050 5.0351 -1.5232
-5.0809 5.0733 -1.5253
-5.0524 5.1071 -1.5262
-5.0087 5.1255 -1.5223
-4.9717 5.1505 -1.5206
-4.9394 5.1802 -1.5204
-4.9169 5.2203 -1.5234
-4.8867 5.2526 -1.5241
-4.8465 5.2738 -1.5215
-4.8088 5.2977 -1.5198
-4.7749 5.3256 -1.5194
-4.7421 5.3548 -1.5194
-4.7104 5.3853 -1.5198
-4.6792 5.4163 -1.5204
-4.6554 5.4561 -1.5236
-4.6206 5.4830 -1.5232
-4.5744 5.4962 -1.5189
-4.5344 5.5167 -1.5168
-4.4980 5.5413 -1.5159
-4.4529 5.5551 -1.5121
-4.4211 5.5854 -1.5129
-4.3898 5.6163 -1.5140
-4.3708 5.6632 -1.5196
-4.3324 5.6853 -1.5183
-4.2898 5.7016 -1.5155
-4.2570 5.7309 -1.5164
-4.2229 5.7585 -1.5168
-4.1830 5.7780 -1.5151
-4.1469 5.8028 -1.5149
-4.1129 5.8305 -1.5155
-4.0787 5.8580 -1.5162
-4.0421 5.8821 -1.5159
-4.0076 5.9093 -1.5166
-3.9718 5.9345 -1.5168
-3.9331 5.9555 -1.5159
-3.8923 5.9730 -1.5142
-3.8598 6.0034 -1.5159
-3.8286 6.0360 -1.5183
-3.7874 6.0528 -1.5166
-3.7455 6.0684 -1.5147
-3.7098 6.0938 -1.5153
-3.6703 6.1131 -1.5144
-3.6342 6.1380 -1.5151
-3.5965 6.1602 -1.5151
-3.5620 6.1881 -1.5166
-3.5230 6.2081 -1.5162
-3.4815 6.2236 -1.5147
-3.4437 6.2457 -1.5149
-3.4063 6.2685 -1.5153
-3.3677 6.2892 -1.5153
-3.3273 6.3063 -1.5144
-3.2849 6.3197 -1.5127
-3.2461 6.3397 -1.5127
-3.2058 6.3569 -1.5121
-3.1572 6.3572 -1.5074
-3.1207 6.3817 -1.5087
-3.0730 6.3832 -1.5044
-3.0350 6.4045 -1.5050
-2.9878 6.4062 -1.5010
-2.9464 6.4200 -1.4999
-2.9026 6.4281 -1.4976
-2.8559 6.4298 -1.4937
-2.8102 6.4328 -1.4903
-2.7637 6.4338 -1.4865
-2.7166 6.4326 -1.4822
-2.6726 6.4384 -1.4796
-2.6267 6.4393 -1.4760
-2.5828 6.4444 -1.4734
-2.5371 6.4446 -1.4698
-2.4923 6.4464 -1.4666
-2.4513 6.4579 -1.4658
-2.4085 6.4646 -1.4638
-2.3641 6.4664 -1.4608
-2.3208 6.4707 -1.4585
-2.2768 6.4728 -1.4557
-2.2320 6.4719 -1.4523
-2.1882 6.4734 -1.4495
-2.1475 6.4840 -1.4489
-2.1037 6.4849 -1.4461
-2.0601 6.4856 -1.4433
-2.0173 6.4888 -1.4412
-1.9718 6.4824 -1.4369
-1.9284 6.4822 -1.4342
-1.8858 6.4845 -1.4320
-1.8441 6.4894 -1.4305
-1.8004 6.4864 -1.4273
-1.7577 6.4870 -1.4250
-1.7169 6.4939 -1.4241
-1.6748 6.4958 -1.4222
-1.6326 6.4965 -1.4201
-1.5913 6.5007 -1.4188
-1.5529 6.5170 -1.4203
-1.5136 6.5292 -1.4209
-1.4718 6.5308 -1.4192
-1.4306 6.5349 -1.4181
-1.3909 6.5455 -1.4186
-1.3495 6.5481 -1.4173
-1.3097 6.5582 -1.4177
-1.2700 6.5690 -1.4183
-1.2293 6.5747 -1.4179
-1.1858 6.5649 -1.4141
-1.1442 6.5643 -1.4124
-1.1032 6.5674 -1.4115
-1.0607 6.5605 -1.4085
-1.0238 6.5881 -1.4132
-0.9859 6.6117 -1.4171
-0.9424 6.5973 -1.4126
-0.9009 6.5952 -1.4109
-0.8582 6.5841 -1.4072
-0.8161 6.5757 -1.4043
-0.7768 6.5893 -1.4062
-0.7395 6.6221 -1.4124
-0.6983 6.6217 -1.4113
-0.6597 6.6463 -1.4158
-0.6204 6.6657 -1.4192
-0.5773 6.6441 -1.4137
-0.5365 6.6475 -1.4137
-0.4959 6.6536 -1.4143
-0.4555 6.6634 -1.4158
-0.4143 6.6602 -1.4145
-0.3739 6.6714 -1.4164
-0.3333 6.6794 -1.4177
-0.2923 6.6813 -1.4177
-0.2514 6.6859 -1.4183
-0.2106 6.6961 -1.4203
-0.1698 6.7071 -1.4224
-0.1288 6.7158 -1.4241
-0.0876 6.7174 -1.4243
-0.0463 6.7071 -1.4220
-0.0051 6.6994 -1.4203
0.0359 6.6905 -1.4183
0.0765 6.6472 -1.4090
0.1176 6.6622 -1.4124
0.1593 6.6966 -1.4201
0.2003 6.6945 -1.4198
0.2414 6.6941 -1.4201
0.2829 6.7013 -1.4220
0.3249 6.7189 -1.4263
0.3660 6.7139 -1.4256
0.4072 6.7115 -1.4256
0.4484 6.7099 -1.4258
0.4895 6.7060 -1.4256
0.5307 6.7029 -1.4256
0.5714 6.6956 -1.4248
0.6124 6.6910 -1.4245
0.6536 6.6881 -1.4248
0.6946 6.6840 -1.4248
0.7355 6.6786 -1.4245
0.7764 6.6740 -1.4245
0.8180 6.6739 -1.4256
0.8574 6.6571 -1.4230
0.8975 6.6459 -1.4218
0.9381 6.6393 -1.4216
0.9795 6.6383 -1.4226
1.0211 6.6380 -1.4239
1.0614 6.6287 -1.4233
1.1028 6.6269 -1.4243
1.1445 6.6257 -1.4256
1.1844 6.6147 -1.4248
1.2244 6.6045 -1.4241
1.2690 6.6179 -1.4288
1.3082 6.6033 -1.4273
1.3480 6.5913 -1.4265
1.3894 6.5877 -1.4275
1.4327 6.5924 -1.4305
1.4750 6.5921 -1.4324
1.5150 6.5810 -1.4320
1.5545 6.5678 -1.4312
1.5964 6.5648 -1.4327
1.6394 6.5662 -1.4352
1.6826 6.5674 -1.4378
1.7251 6.5655 -1.4397
1.7702 6.5727 -1.4438
1.8123 6.5683 -1.4453
1.8558 6.5683 -1.4478
1.9009 6.5737 -1.4517
1.9440 6.5713 -1.4538
1.9851 6.5620 -1.4544
2.0303 6.5656 -1.4581
2.0729 6.5605 -1.4598
2.1158 6.5560 -1.4617
2.1597 6.5540 -1.4643
2.2067 6.5610 -1.4690
2.2507 6.5584 -1.4715
2.2932 6.5510 -1.4730
2.3366 6.5460 -1.4752
2.3827 6.5480 -1.4790
2.4300 6.5525 -1.4835
2.4719 6.5421 -1.4845
2.5246 6.5596 -1.4922
2.5648 6.5440 -1.4922
2.6111 6.5435 -1.4959
2.6582 6.5446 -1.4999
2.7039 6.5417 -1.5031
2.7493 6.5376 -1.5061
2.7951 6.5341 -1.5093
2.8437 6.5365 -1.5140
2.8881 6.5288 -1.5164
2.9325 6.5207 -1.5187
2.9782 6.5150 -1.5217
3.0226 6.5064 -1.5241
3.0696 6.5027 -1.5277
3.1141 6.4935 -1.5300
3.1547 6.4760 -1.5305
3.1983 6.4644 -1.5324
3.2419 6.4525 -1.5343
3.2836 6.4368 -1.5354
3.3235 6.4174 -1.5356
3.3619 6.3952 -1.5352
3.4020 6.3762 -1.5356
3.4462 6.3646 -1.5379
3.4870 6.3468 -1.5388
3.5307 6.3338 -1.5409
3.5695 6.3120 -1.5409
3.6028 6.2807 -1.5386
3.6359 6.2492 -1.5362
3.6811 6.2385 -1.5392
3.7228 6.2217 -1.5407
3.7604 6.1979 -1.5405
3.7989 6.1755 -1.5407
3.8393 6.1562 -1.5418
3.8738 6.1276 -1.5405
3.9108 6.1029 -1.5403
3.9503 6.0821 -1.5411
3.9919 6.0643 -1.5428
4.0296 6.0405 -1.5431
4.0655 6.0140 -1.5426
4.1039 5.9914 -1.5433
4.1451 5.9725 -1.5450
4.1878 5.9557 -1.5473
4.2198 5.9236 -1.5456
4.2520 5.8920 -1.5441
4.2875 5.8650 -1.5439
4.3205 5.8347 -1.5428
4.3545 5.8057 -1.5422
4.3770 5.7618 -1.5375
4.4212 5.7464 -1.5407
4.4600 5.7238 -1.5420
4.5114 5.7170 -1.5478
4.5525 5.6969 -1.5499
4.5880 5.6696 -1.5501
4.6276 5.6474 -1.5518
4.6510 5.6053 -1.5480
4.6916 5.5842 -1.5501
4.7289 5.5590 -1.5512
4.7636 5.5306 -1.5514
4.7903 5.4932 -1.5490
4.8246 5.4644 -1.5493
4.8671 5.4449 -1.5522
4.9083 5.4236 -1.5548
4.9395 5.3913 -1.5542
4.9652 5.3530 -1.5518
4.9913 5.3153 -1.5497
5.0238 5.2846 -1.5497
5.0568 5.2543 -1.5499
5.1012 5.2358 -1.5537
5.1415 5.2128 -1.5563
5.1658 5.1735 -1.5539
5.1933 5.1376 -1.5527
5.2268 5.1077 -1.5533
5.2637 5.0809 -1.5550
5.2969 5.0506 -1.5557
5.3306 5.0207 -1.5565
5.3656 4.9918 -1.5578
5.3932 4.9562 -1.5569
5.4192 4.9191 -1.5557
5.4493 4.8857 -1.5557
5.4740 4.8477 -1.5542
5.5074 4.8172 -1.5552
5.5486 4.7935 -1.5586
5.5787 4.7600 -1.5589
5.6056 4.7238 -1.5582
5.6344 4.6893 -1.5582
5.6586 4.6509 -1.5569
5.6847 4.6143 -1.5563
5.7213 4.5860 -1.5586
5.7532 4.5539 -1.5597
5.7833 4.5203 -1.5604
5.8140 4.4871 -1.5612
5.8446 4.4537 -1.5621
5.8655 4.4131 -1.5604
5.8855 4.3718 -1.5584
5.9153 4.3379 -1.5593
5.9513 4.3084 -1.5618
5.9832 4.2758 -1.5633
6.0085 4.2384 -1.5631
6.0465 4.2098 -1.5663
6.0746 4.1743 -1.5670
6.0993 4.1364 -1.5668
6.1237 4.0984 -1.5665
6.1471 4.0596 -1.5661
6.1662 4.0181 -1.5646
6.1842 3.9760 -1.5629
6.2109 3.9395 -1.5636
6.2433 3.9065 -1.5657
6.2763 3.8738 -1.5680
6.2982 3.8342 -1.5676
6.3191 3.7939 -1.5670
6.3339 3.7501 -1.5648
6.3593 3.7127 -1.5655
6.3854 3.6755 -1.5663
6.4027 3.6334 -1.5651
6.4283 3.5959 -1.5659
6.4545 3.5588 -1.5670
6.4822 3.5224 -1.5685
6.5132 3.4876 -1.5708
6.5396 3.4503 -1.5721
6.5538 3.4065 -1.5704
6.5650 3.3613 -1.5680
6.5925 3.3245 -1.5698
6.6084 3.2818 -1.5687
6.6301 3.2421 -1.5691
6.6508 3.2018 -1.5693
6.6668 3.1592 -1.5685
6.6887 3.1195 -1.5691
6.7166 3.0825 -1.5712
6.7309 3.0392 -1.5702
6.7405 2.9939 -1.5680
6.7659 2.9556 -1.5698
6.7821 2.9132 -1.5693
6.8062 2.8742 -1.5708
6.8300 2.8350 -1.5723
6.8653 2.8005 -1.5766
6.8842 2.7590 -1.5770
6.8965 2.7149 -1.5759
6.9002 2.6676 -1.5730
6.9402 2.6342 -1.5785
6.9462 2.5879 -1.5762
6.9592 2.5442 -1.5755
6.9848 2.5051 -1.5779
6.9973 2.4612 -1.5772
7.0021 2.4147 -1.5749
7.0149 2.3711 -1.5744
7.0404 2.3317 -1.5770
7.0602 2.2902 -1.5783
7.0695 2.2454 -1.5772
7.0700 2.1979 -1.5742
7.0974 2.1587 -1.5774
7.1227 2.1188 -1.5802
7.1234 2.0715 -1.5774
7.1623 2.0352 -1.5834
7.1793 1.9925 -1.5845
7.1895 1.9479 -1.5841
7.2108 1.9063 -1.5862
7.2375 1.8659 -1.5896
7.2488 1.8215 -1.5896
7.2371 1.7714 -1.5845
7.2373 1.7244 -1.5821
7.2392 1.6780 -1.5802
7.2389 1.6312 -1.5779
7.2497 1.5870 -1.5781
7.2603 1.5427 -1.5783
7.2792 1.5001 -1.5804
7.2796 1.4536 -1.5785
7.2855 1.4084 -1.5779
7.3017 1.3651 -1.5796
7.3023 1.3189 -1.5779
7.3083 1.2737 -1.5774
7.3179 1.2292 -1.5779
7.3243 1.1841 -1.5777
7.3305 1.1390 -1.5774
7.3325 1.0933 -1.5764
7.3362 1.0478 -1.5757
7.3483 1.0036 -1.5770
7.3776 0.9615 -1.5821
7.3785 0.9156 -1.5811
7.3733 0.8691 -1.5787
7.3989 0.8261 -1.5832
7.4086 0.7812 -1.5843
7.4162 0.7360 -1.5849
7.4118 0.6897 -1.5830
7.4033 0.6431 -1.5802
7.4100 0.5979 -1.5809
7.4204 0.5529 -1.5823
7.4441 0.5088 -1.5868
7.4324 0.4622 -1.5836
7.4283 0.4162 -1.5821
7.4229 0.3702 -1.5804
7.4241 0.3246 -1.5802
7.4279 0.2791 -1.5806
7.4441 0.2340 -1.5838
7.4571 0.1886 -1.5864
7.4493 0.1427 -1.5845
7.4520 0.0970 -1.5849
7.4808 0.0515 -1.5911
7.4898 0.0056 -1.5930
7.4789 -0.0403 -1.5907
7.4590 -0.0860 -1.5864
7.4554 -0.1317 -1.5858
7.4583 -0.1775 -1.5866
7.4825 -0.2241 -1.5922
7.4947 -0.2705 -1.5952
7.4948 -0.3165 -1.5956
7.4927 -0.3625 -1.5956
7.4835 -0.4081 -1.5941
7.4760 -0.4537 -1.5930
7.4721 -0.4995 -1.5928
7.4825 -0.5464 -1.5958
7.4927 -0.5933 -1.5988
7.4967 -0.6400 -1.6005
7.5014 -0.6868 -1.6024
7.4951 -0.7326 -1.6020
7.4778 -0.7772 -1.5992
7.4748 -0.8233 -1.5996
7.4871 -0.8712 -1.6035
7.4816 -0.9171 -1.6035
7.4788 -0.9634 -1.6041
7.4824 -1.0106 -1.6063
7.4828 -1.0574 -1.6078
7.4801 -1.1039 -1.6086
7.4722 -1.1496 -1.6084
7.4611 -1.1948 -1.6075
7.4594 -1.2416 -1.6088
7.4584 -1.2885 -1.6103
7.4523 -1.3346 -1.6108
7.4488 -1.3811 -1.6118
7.4402 -1.4268 -1.6118
7.4370 -1.4736 -1.6131
7.4393 -1.5215 -1.6157
7.4375 -1.5688 -1.6174
7.4287 -1.6146 -1.6176
7.4081 -1.6578 -1.6152
7.4007 -1.7039 -1.6159
7.4319 -1.7592 -1.6253
7.4172 -1.8038 -1.6244
7.3984 -1.8474 -1.6227
7.3860 -1.8925 -1.6225
7.3601 -1.9341 -1.6193
7.3735 -1.9861 -1.6251
7.3584 -2.0305 -1.6244
7.3514 -2.0772 -1.6257
7.3470 -2.1247 -1.6276
7.3404 -2.1717 -1.6291
7.3288 -2.2172 -1.6295
7.3178 -2.2630 -1.6302
7.3057 -2.3085 -1.6306
7.2941 -2.3542 -1.6313
7.2805 -2.3992 -1.6315
7.2527 -2.4395 -1.6285
7.2357 -2.4833 -1.6280
7.2517 -2.5386 -1.6353
7.2406 -2.5847 -1.6364
7.2200 -2.6274 -1.6353
7.1332 -2.6455 -1.6189
7.0739 -2.6730 -1.6088
7.0255 -2.7040 -1.6014
6.9423 -2.7211 -1.5858
6.9373 -2.7683 -1.5885
6.9175 -2.8097 -1.5879
6.8775 -2.8428 -1.5826
6.7510 -2.8391 -1.5567
6.7469 -2.8862 -1.5599
6.7381 -2.9315 -1.5621
6.4868 -2.8695 -1.5063
6.4477 -2.8997 -1.5012
6.3258 -2.8916 -1.4762
6.2397 -2.8987 -1.4598
6.2245 -2.9382 -1.4604
6.0927 -2.9218 -1.4329
6.2090 -3.0246 -1.4655
6.2245 -3.0796 -1.4739
6.2989 -3.1646 -1.4967
6.4073 -3.2685 -1.5281
6.3298 -3.2781 -1.5140
6.3373 -3.3314 -1.5208
6.3158 -3.3698 -1.5206
6.2942 -3.4080 -1.5204
7.0317 -3.8635 -1.7096
6.1700 -3.4393 -1.4999
6.7839 -3.8365 -1.6594
6.1349 -3.5192 -1.5018
6.9930 -4.0688 -1.7244
7.0150 -4.1395 -1.7363
7.0037 -4.1910 -1.7399
6.9737 -4.2313 -1.7389
6.9518 -4.2766 -1.7399
6.9196 -4.3155 -1.7384
6.9269 -4.3793 -1.7472
5.2607 -3.3709 -1.3216
6.8611 -4.4565 -1.7442
4.9562 -3.2622 -1.2529
4.8971 -3.2666 -1.2426
4.8325 -3.2664 -1.2309
4.7809 -3.2745 -1.2225
4.7351 -3.2859 -1.2157
4.6860 -3.2947 -1.2080
4.6411 -3.3058 -1.2014
4.6001 -3.3194 -1.1958
4.5647 -3.3366 -1.1918
4.5268 -3.3517 -1.1871
4.4882 -3.3660 -1.1822
4.4426 -3.3745 -1.1753
4.4032 -3.3874 -1.1702
4.3662 -3.4017 -1.1657
4.3299 -3.4164 -1.1615
4.2951 -3.4319 -1.1576
4.2595 -3.4465 -1.1536
4.2277 -3.4639 -1.1506
4.1823 -3.4698 -1.1437
4.1475 -3.4841 -1.1399
4.1127 -3.4981 -1.1360
4.0771 -3.5111 -1.1320
4.0326 -3.5162 -1.1254
3.9905 -3.5227 -1.1194
3.9549 -3.5348 -1.1153
3.9165 -3.5439 -1.1104
3.8767 -3.5514 -1.1051
3.8470 -3.5678 -1.1027
3.8051 -3.5726 -1.0968
3.7661 -3.5797 -1.0916
3.7152 -3.5750 -1.0829
3.6638 -3.5691 -1.0739
3.6300 -3.5798 -1.0703
3.5762 -3.5703 -1.0605
3.5322 -3.5699 -1.0536
3.4986 -3.5796 -1.0500
3.4474 -3.5708 -1.0408
3.4147 -3.5806 -1.0374
3.3846 -3.5929 -1.0348
3.3326 -3.5814 -1.0252
3.3079 -3.5989 -1.0244
3.2765 -3.6090 -1.0214
3.2433 -3.6167 -1.0177
3.2139 -3.6285 -1.0154
3.1813 -3.6364 -1.0120
3.1448 -3.6396 -1.0073
3.1117 -3.6462 -1.0037
3.0842 -3.6592 -1.0019
3.0517 -3.6660 -0.9985
3.0254 -3.6802 -0.9972
2.9979 -3.6926 -0.9955
2.9690 -3.7033 -0.9934
2.9384 -3.7115 -0.9906
2.9071 -3.7187 -0.9876
2.8777 -3.7279 -0.9853
2.8477 -3.7362 -0.9827
2.8200 -3.7473 -0.9810
2.7900 -3.7552 -0.9785
2.7582 -3.7604 -0.9753
2.7316 -3.7725 -0.9740
2.7062 -3.7860 -0.9731
2.6795 -3.7977 -0.9718
2.6433 -3.7957 -0.9669
2.6178 -3.8086 -0.9661
2.5922 -3.8214 -0.9652
2.5649 -3.8315 -0.9637
2.5375 -3.8415 -0.9622
2.5096 -3.8504 -0.9605
2.4849 -3.8641 -0.9601
2.4544 -3.8685 -0.9573
2.4213 -3.8686 -0.9535
2.3975 -3.8834 -0.9535
2.3929 -3.9298 -0.9616
2.3773 -3.9586 -0.9652
4.3502 -7.3478 -1.8224
2.4049 -4.1183 -0.9983
4.2602 -7.4015 -1.8226
4.2128 -7.4241 -1.8217
4.1786 -7.4703 -1.8269
4.1289 -7.4889 -1.8251
4.1696 -7.6738 -1.8649
4.2326 -7.9051 -1.9159
3.8582 -7.3130 -1.7632
3.8083 -7.3270 -1.7609
3.7766 -7.3764 -1.7673
2.0871 -4.1376 -0.9688
3.7735 -7.5989 -1.8104
3.9551 -8.0889 -1.9240
3.6169 -7.5135 -1.7786
3.5569 -7.5064 -1.7715
1.9964 -4.2794 -0.9881
3.5163 -7.6623 -1.7987
3.4370 -7.6124 -1.7816
3.3998 -7.6548 -1.7867
3.3309 -7.6254 -1.7748
3.3110 -7.7085 -1.7897
3.3309 -7.8880 -1.8275
3.1196 -7.5158 -1.7346
3.0608 -7.5040 -1.7273
3.0307 -7.5626 -1.7367
3.0562 -7.7637 -1.7797
2.9690 -7.6803 -1.7557
2.9170 -7.6856 -1.7528
2.8575 -7.6704 -1.7451
2.8557 -7.8116 -1.7739
2.8172 -7.8557 -1.7801
2.7716 -7.8802 -1.7818
2.7992 -8.1178 -1.8328
2.7416 -8.1117 -1.8275
2.6009 -7.8538 -1.7643
2.5608 -7.8947 -1.7701
2.5321 -7.9727 -1.7844
2.4883 -8.0048 -1.7882
2.4781 -8.1480 -1.8175
2.4141 -8.1163 -1.8068
2.3395 -8.0455 -1.7874
2.3237 -8.1782 -1.8143
2.2777 -8.2073 -1.8177
2.2885 -8.4475 -1.8689
2.3522 -8.8987 -1.9678
2.1881 -8.4882 -1.8719
2.2913 -9.1202 -2.0114
1.2206 -4.9852 -1.0778
1.9616 -8.2333 -1.8059
1.8824 -8.1215 -1.7782
1.8282 -8.1138 -1.7739
1.1436 -5.2226 -1.1245
1.1047 -5.1971 -1.1173
1.0146 -4.9215 -1.0543
1.0123 -5.0675 -1.0854
1.0062 -5.2031 -1.1143
0.9361 -5.0046 -1.0688
1.2516 -6.9292 -1.4950
0.8573 -4.9166 -1.0468
1.3121 -7.8122 -1.6874
1.2764 -7.8962 -1.7043
1.2308 -7.9223 -1.7083
1.1921 -7.9963 -1.7231
1.1447 -8.0151 -1.7256
1.1088 -8.1198 -1.7472
1.0553 -8.0983 -1.7410
1.0169 -8.1958 -1.7611
0.9734 -8.2601 -1.7739
0.9190 -8.2319 -1.7664
0.8762 -8.3112 -1.7827
0.8450 -8.5167 -1.8266
0.7931 -8.5256 -1.8275
0.7396 -8.5167 -1.8245
0.6852 -8.4948 -1.8187
0.6321 -8.4852 -1.8158
0.5826 -8.5269 -1.8241
0.5319 -8.5576 -1.8301
0.4810 -8.5890 -1.8363
0.4945 -9.9247 -2.1279
0.4222 -9.6660 -2.0707
0.3470 -9.2437 -1.9778
0.2956 -9.4156 -2.0150
0.2287 -9.0529 -1.9353
0.1686 -8.8129 -1.8826
0.1201 -9.2475 -1.9774
0.0617 -9.0048 -1.9242
0.0068 -9.6468 -2.0645
-0.0527 -9.7034 -2.0769
-0.1116 -9.6462 -2.0645
-0.1562 -8.8287 -1.8860
-0.2191 -9.1929 -1.9659
-0.2696 -8.9941 -1.9227
-0.3174 -8.7882 -1.8781
-0.3857 -9.1258 -1.9524
-0.4417 -9.1233 -1.9524
-0.2556 -4.6966 -0.9840
-0.2831 -4.6735 -0.9793
-0.3114 -4.6648 -0.9778
-0.3403 -4.6677 -0.9789
-0.3692 -4.6685 -0.9795
-0.3989 -4.6788 -0.9823
-0.4290 -4.6918 -0.9857
-0.4582 -4.6930 -0.9866
-0.4877 -4.6969 -0.9881
-0.5176 -4.7035 -0.9902
-0.5482 -4.7158 -0.9936
-0.5784 -4.7220 -0.9958
-0.6086 -4.7280 -0.9979
-0.6397 -4.7397 -1.0013
-0.6705 -4.7483 -1.0041
-0.7009 -4.7528 -1.0060
-0.7310 -4.7542 -1.0073
-0.7614 -4.7573 -1.0090
-0.7918 -4.7603 -1.0107
-0.8230 -4.7669 -1.0133
-0.8557 -4.7810 -1.0175
-0.8882 -4.7929 -1.0214
-0.9198 -4.7989 -1.0239
-0.9525 -4.8094 -1.0276
-0.9871 -4.8284 -1.0331
-1.0187 -4.8318 -1.0353
-1.0527 -4.8455 -1.0397
-1.0871 -4.8599 -1.0444
-1.1197 -4.8655 -1.0472
-1.1554 -4.8833 -1.0528
-1.1911 -4.8998 -1.0581
-1.2219 -4.8953 -1.0587
-1.2609 -4.9227 -1.0666
-1.3025 -4.9583 -1.0765
-1.3393 -4.9738 -1.0818
-1.3770 -4.9919 -1.0878
-1.4172 -5.0172 -1.0955
-1.4561 -5.0366 -1.1019
-1.4975 -5.0631 -1.1100
-1.5368 -5.0810 -1.1162
-1.5792 -5.1078 -1.1245
-1.6146 -5.1111 -1.1275
-1.6631 -5.1541 -1.1397
-1.7044 -5.1735 -1.1465
-1.7402 -5.1749 -1.1493
-1.7795 -5.1863 -1.1544
-1.8188 -5.1965 -1.1593
-1.8667 -5.2304 -1.1698
-1.9044 -5.2344 -1.1734
-1.9426 -5.2391 -1.1773
-1.9817 -5.2454 -1.1815
-2.0254 -5.2632 -1.1886
-2.0666 -5.2734 -1.1939
-2.1098 -5.2878 -1.2003
-2.1506 -5.2956 -1.2052
-2.1909 -5.3013 -1.2097
-2.2355 -5.3166 -1.2166
-2.2785 -5.3270 -1.2223
-2.3193 -5.3317 -1.2268
-2.3567 -5.3281 -1.2294
-2.4118 -5.3634 -1.2413
-2.4549 -5.3707 -1.2467
-2.5005 -5.3830 -1.2533
-2.5560 -5.4153 -1.2648
-2.5934 -5.4083 -1.2669
-2.6655 -5.4722 -1.2864
-2.7129 -5.4838 -1.2932
-2.7553 -5.4845 -1.2975
-2.8235 -5.5354 -1.3141
-4.3491 -8.3969 -2.0229
-4.3987 -8.3666 -2.0220
-4.4325 -8.3067 -2.0139
-4.4908 -8.2931 -2.0173
-4.5308 -8.2457 -2.0124
-4.5404 -8.1443 -1.9941
-4.5744 -8.0883 -1.9870
-4.6166 -8.0473 -1.9838
-4.6551 -8.0003 -1.9791
-4.6733 -7.9194 -1.9659
-4.6772 -7.8160 -1.9469
-4.7149 -7.7704 -1.9426
-4.7364 -7.6989 -1.9317
-4.7763 -7.6581 -1.9287
-4.8070 -7.6031 -1.9221
-4.8330 -7.5414 -1.9138
-4.8510 -7.4682 -1.9024
-4.8064 -7.3012 -1.8666
-4.8745 -7.3065 -1.8758
-4.8760 -7.2125 -1.8589
-4.9389 -7.2099 -1.8661
-5.0076 -7.2147 -1.8755
-5.0635 -7.2006 -1.8800
-5.1405 -7.2156 -1.8924
-5.1858 -7.1855 -1.8928
-5.2581 -7.1922 -1.9033
-5.3079 -7.1676 -1.9054
-5.3401 -7.1193 -1.9012
-5.3618 -7.0576 -1.8933
-5.3943 -7.0106 -1.8894
-5.4336 -6.9728 -1.8881
-5.4763 -6.9393 -1.8881
-5.5078 -6.8919 -1.8843
-5.5297 -6.8329 -1.8773
-5.5647 -6.7905 -1.8749
-5.5975 -6.7457 -1.8719
-5.6287 -6.6993 -1.8685
-5.6609 -6.6542 -1.8655
-5.6914 -6.6075 -1.8621
-5.7222 -6.5614 -1.8589
-5.7442 -6.5057 -1.8529
-5.7176 -6.3960 -1.8311
-5.7200 -6.3202 -1.8192
-5.7462 -6.2713 -1.8151
-5.7752 -6.2259 -1.8121
-5.8060 -6.1826 -1.8098
-5.8371 -6.1397 -1.8076
-5.8611 -6.0897 -1.8034
-5.8888 -6.0439 -1.8004
-5.9038 -5.9854 -1.7935
-5.9370 -5.9456 -1.7925
-5.9692 -5.9049 -1.7912
-6.0011 -5.8641 -1.7899
-6.0313 -5.8217 -1.7882
-6.0535 -5.7718 -1.7841
-6.0789 -5.7252 -1.7812
-6.1074 -5.6818 -1.7792
-6.1415 -5.6435 -1.7790
-6.1731 -5.6031 -1.7782
-6.1964 -5.5553 -1.7750
-6.2231 -5.5107 -1.7728
-6.2524 -5.4686 -1.7715
-6.2865 -5.4308 -1.7718
-6.3175 -5.3902 -1.7711
-6.3385 -5.3413 -1.7677
-6.3637 -5.2960 -1.7656
-6.3945 -5.2556 -1.7651
-6.4145 -5.2064 -1.7617
-6.4380 -5.1603 -1.7594
-6.4649 -5.1170 -1.7581
-6.4877 -5.0707 -1.7557
-6.5040 -5.0194 -1.7517
-6.5269 -4.9735 -1.7496
-6.5487 -4.9269 -1.7472
-6.5796 -4.8872 -1.7474
-6.6095 -4.8467 -1.7474
-6.5956 -4.7746 -1.7357
-6.6160 -4.7278 -1.7333
-6.6329 -4.6787 -1.7301
-6.6511 -4.6306 -1.7273
-6.6801 -4.5903 -1.7276
-6.7090 -4.5497 -1.7278
-6.6978 -4.4824 -1.7175
-6.7146 -4.4342 -1.7147
-6.7466 -4.3962 -1.7160
-6.7504 -4.3399 -1.7100
-6.7711 -4.2947 -1.7086
-6.7949 -4.2515 -1.7079
-6.8167 -4.2072 -1.7068
-6.8257 -4.1551 -1.7026
-6.8494 -4.1122 -1.7021
-6.8627 -4.0631 -1.6992
-6.8647 -4.0076 -1.6934
-6.8545 -3.9454 -1.6846
-6.8565 -3.8908 -1.6791
-6.8614 -3.8382 -1.6744
-6.8618 -3.7832 -1.6686
-6.8651 -3.7303 -1.6637
-6.8672 -3.6771 -1.6586
-6.8723 -3.6258 -1.6543
-6.8771 -3.5745 -1.6500
-6.8763 -3.5207 -1.6445
-0.9892 -0.5001 -0.1982
-0.9914 -0.4936 -0.1980
-0.9918 -0.4862 -0.1973
-0.9947 -0.4801 -0.1973
-0.9941 -0.4723 -0.1965
-6.9277 -3.2309 -1.6268
-6.9563 -3.1924 -1.6289
-6.9900 -3.1561 -1.6323
-7.0128 -3.1148 -1.6332
-0.9562 -0.4189 -0.1841
-0.9920 -0.4273 -0.1920
-0.9973 -0.4224 -0.1926
-1.0017 -0.4170 -0.1930
-1.0042 -0.4108 -0.1930
-1.0076 -0.4050 -0.1933
-1.0083 -0.3981 -0.1928
-1.0070 -0.3905 -0.1920
-1.0039 -0.3823 -0.1907
-1.0035 -0.3751 -0.1901
-1.0021 -0.3676 -0.1892
-0.9988 -0.3594 -0.1879
-1.0001 -0.3530 -0.1877
-0.9866 -0.3414 -0.1841
-0.9933 -0.3369 -0.1851
-0.9860 -0.3277 -0.1830
-0.9973 -0.3247 -0.1851
-0.9872 -0.3147 -0.1824
-1.0050 -0.3136 -0.1860
-0.9928 -0.3032 -0.1828
-0.9994 -0.2985 -0.1839
-0.9909 -0.2893 -0.1815
-0.9898 -0.2824 -0.1809
-0.9868 -0.2751 -0.1798
-0.9809 -0.2670 -0.1781
-0.9778 -0.2597 -0.1770
-0.9785 -0.2534 -0.1768
-0.9980 -0.2519 -0.1809
-0.9853 -0.2423 -0.1777
-0.9620 -0.2304 -0.1721
-0.9720 -0.2265 -0.1740
-0.9743 -0.2207 -0.1743
-0.9766 -0.2149 -0.1745
-0.9731 -0.2079 -0.1734
-0.9754 -0.2022 -0.1736
-0.9727 -0.1954 -0.1728
-0.9787 -0.1904 -0.1738
-0.9789 -0.1842 -0.1736
-0.9839 -0.1789 -0.1745
-0.9888 -0.1735 -0.1753
-0.9937 -0.1681 -0.1762
-0.7335 -0.1060 -0.1179
-1.0229 -0.0710 -0.1800
-0.9951 -0.0630 -0.1738
-0.9740 -0.0557 -0.1691
-0.9753 -0.0498 -0.1693
-0.9853 -0.0442 -0.1715
-0.9983 -0.0387 -0.1743
-0.9878 -0.0322 -0.1719
-1.0006 -0.0264 -0.1747
-0.9998 -0.0203 -0.1745
-1.0146 -0.0143 -0.1777
-0.9697 -0.0078 -0.1678
-1.0176 -0.0019 -0.1783
-0.9203 -0.0446 -0.1686
-0.9313 -0.0394 -0.1711
-0.9266 -0.0335 -0.1699
-0.9609 -0.0289 -0.1778
-0.9834 -0.0236 -0.1830
-0.9641 -0.0172 -0.1785
-0.9293 0.0405 -0.1706
-0.9416 0.0468 -0.1736
-0.8985 0.0503 -0.1636
-0.8972 0.0557 -0.1634
-0.9105 0.0621 -0.1666
-0.9169 0.0682 -0.1681
-0.9359 0.0754 -0.1727
-0.9276 0.0805 -0.1708
-0.8708 0.0810 -0.1578
-0.8781 0.0871 -0.1596
-0.9677 0.1019 -0.1805
-0.8750 0.0977 -0.1591
-0.8763 0.1033 -0.1596
-0.8747 0.1085 -0.1594
-0.9021 0.1175 -0.1659
-0.8762 0.1196 -0.1600
-0.8832 0.1261 -0.1618
-0.8843 0.1318 -0.1623
-0.8825 0.1371 -0.1621
-0.8932 0.1443 -0.1648
-0.8866 0.1488 -0.1634
-0.8712 0.1518 -0.1600
-0.9173 0.1656 -0.1711
-0.8990 0.1680 -0.1670
-0.9008 0.1740 -0.1677
-0.8921 0.1781 -0.1659
-0.9034 0.1861 -0.1688
-0.8708 0.1850 -0.1614
-0.8715 0.1907 -0.1618
-0.8637 0.1946 -0.1603
-0.8653 0.2005 -0.1609
-0.8764 0.2088 -0.1639
-0.8732 0.2137 -0.1634
-0.8615 0.2164 -0.1609
-0.8648 0.2229 -0.1621
-0.8437 0.2230 -0.1573
-0.8686 0.2353 -0.1636
-0.8719 0.2419 -0.1648
-0.8657 0.2459 -0.1636
-0.8576 0.2493 -0.1621
-0.8617 0.2563 -0.1634
-0.8470 0.2576 -0.1603
-0.8603 0.2674 -0.1639
-0.8187 0.2600 -0.1542
-0.8264 0.2680 -0.1564
-0.8303 0.2749 -0.1578
-0.8267 0.2794 -0.1573
-0.8277 0.2854 -0.1580
-0.8205 0.2886 -0.1567
-0.8233 0.2952 -0.1578
-0.8260 0.3019 -0.1589
-0.8296 0.3090 -0.1603
-0.8305 0.3152 -0.1609
-0.9003 0.3479 -0.1787
-0.8456 0.3328 -0.1657
-0.8535 0.3419 -0.1681
-0.8523 0.3475 -0.1684
-0.8321 0.3453 -0.1639
-0.8524 0.3599 -0.1695
-0.8466 0.3636 -0.1686
-0.8319 0.3633 -0.1654
-0.8225 0.3652 -0.1636
-0.8442 0.3811 -0.1697
-0.8259 0.3790 -0.1657
-0.8041 0.3750 -0.1607
-0.8150 0.3862 -0.1641
-0.8188 0.3941 -0.1657
-0.8391 0.4102 -0.1715
-0.8375 0.4158 -0.1718
-0.8175 0.4122 -0.1672
-0.8141 0.4167 -0.1670
-0.7968 0.4141 -0.1632
-0.8124 0.4285 -0.1679
-0.7753 0.4151 -0.1589
-0.7753 0.4213 -0.1596
-0.7693 0.4241 -0.1587
-6.0245 3.3591 -1.5505
-5.9986 3.3932 -1.5492
-5.9363 3.4062 -1.5381
-5.9094 3.4391 -1.5366
-5.8915 3.4773 -1.5375
-5.8718 3.5144 -1.5379
-5.8501 3.5503 -1.5379
-5.8249 3.5841 -1.5370
-5.7928 3.6136 -1.5343
-5.7689 3.6480 -1.5339
-5.7538 3.6881 -1.5359
-5.7327 3.7244 -1.5363
-5.6975 3.7515 -1.5330
-5.6631 3.7788 -1.5298
-5.6503 3.8205 -1.5327
-5.6275 3.8557 -1.5330
-5.5981 3.8863 -1.5314
-5.5726 3.9194 -1.5309
-5.5548 3.9581 -1.5327
-5.5336 3.9943 -1.5336
-5.5042 4.0248 -1.5323
-5.4763 4.0562 -1.5314
-5.4544 4.0920 -1.5323
-5.4222 4.1201 -1.5303
-5.3992 4.1551 -1.5309
-5.3705 4.1857 -1.5300
-5.3432 4.2174 -1.5296
-5.3241 4.2556 -1.5316
-5.3039 4.2931 -1.5334
-5.2760 4.3243 -1.5330
-5.2523 4.3591 -1.5339
-5.2225 4.3887 -1.5330
-5.1880 4.4144 -1.5307
-5.1594 4.4448 -1.5303
-5.1298 4.4745 -1.5296
-5.0942 4.4988 -1.5271
-5.0680 4.5313 -1.5276
-5.0451 4.5669 -1.5291
-5.0228 4.6030 -1.5309
-4.9923 4.6317 -1.5303
-4.9510 4.6503 -1.5262
-4.9125 4.6712 -1.5230
-4.8957 4.7127 -1.5269
-4.8708 4.7467 -1.5282
-4.8305 4.7656 -1.5246
-4.7915 4.7855 -1.5215
-4.7696 4.8224 -1.5239
-4.7420 4.8537 -1.5246
-4.7168 4.8876 -1.5262
-4.6861 4.9158 -1.5260
-4.6432 4.9309 -1.5217
-4.6082 4.9543 -1.5201
-4.5783 4.9832 -1.5203
-4.5536 5.0177 -1.5224
-4.5305 5.0543 -1.5251
-4.5013 5.0842 -1.5258
-4.4675 5.1088 -1.5248
-4.4303 5.1294 -1.5228
-4.4038 5.1625 -1.5246
-4.3696 5.1864 -1.5237
-4.3352 5.2101 -1.5228
-4.3031 5.2366 -1.5228
-4.2629 5.2531 -1.5199
-4.2288 5.2769 -1.5192
-4.1981 5.3050 -1.5199
-4.1631 5.3276 -1.5190
-4.1321 5.3554 -1.5197
-4.0962 5.3767 -1.5185
-4.0766 5.4197 -1.5237
-4.0375 5.4368 -1.5215
-3.9937 5.4473 -1.5174
-3.9585 5.4693 -1.5167
-3.9243 5.4927 -1.5165
-3.8894 5.5151 -1.5161
-3.8549 5.5381 -1.5158
-3.8175 5.5568 -1.5145
-3.7932 5.5946 -1.5185
-3.7610 5.6210 -1.5194
-3.7184 5.6318 -1.5161
-3.6811 5.6505 -1.5149
-3.6453 5.6713 -1.5145
-3.6135 5.6985 -1.5158
-3.5827 5.7272 -1.5176
-3.5480 5.7499 -1.5179
-3.5116 5.7699 -1.5174
-3.4716 5.7838 -1.5154
-3.4370 5.8067 -1.5158
-3.4023 5.8293 -1.5163
-3.3650 5.8476 -1.5156
-3.3310 5.8715 -1.5165
-3.2945 5.8910 -1.5163
-3.2564 5.9076 -1.5154
-3.2182 5.9241 -1.5145
-3.1841 5.9480 -1.5156
-3.1484 5.9692 -1.5161
-3.1100 5.9849 -1.5152
-3.0745 6.0065 -1.5158
-3.0415 6.0331 -1.5179
-3.0032 6.0490 -1.5172
-2.9656 6.0664 -1.5170
-2.9296 6.0872 -1.5176
-2.8905 6.1015 -1.5167
-2.8509 6.1147 -1.5156
-2.8125 6.1303 -1.5152
-2.7745 6.1466 -1.5149
-2.7359 6.1617 -1.5145
-2.6985 6.1793 -1.5147
-2.6628 6.2011 -1.5161
-2.6205 6.2074 -1.5136
-2.5783 6.2135 -1.5111
-2.5423 6.2346 -1.5125
-2.5047 6.2519 -1.5129
-2.4667 6.2680 -1.5131
-2.4268 6.2794 -1.5122
-2.3865 6.2896 -1.5111
-2.3472 6.3023 -1.5107
-2.3074 6.3139 -1.5100
-2.2657 6.3197 -1.5080
-2.2246 6.3270 -1.5064
-2.1857 6.3405 -1.5064
-2.1480 6.3575 -1.5073
-2.1093 6.3715 -1.5075
-2.0690 6.3806 -1.5066
-2.0265 6.3830 -1.5041
-1.9856 6.3897 -1.5028
-1.9398 6.3803 -1.4976
-1.8990 6.3865 -1.4962
-1.8573 6.3896 -1.4942
-1.8165 6.3953 -1.4929
-1.7735 6.3932 -1.4897
-1.7310 6.3917 -1.4868
-1.6897 6.3947 -1.4850
-1.6497 6.4021 -1.4843
-1.6090 6.4064 -1.4829
-1.5673 6.4067 -1.4807
-1.5264 6.4096 -1.4791
-1.4853 6.4112 -1.4773
-1.4459 6.4202 -1.4773
-1.4059 6.4261 -1.4766
-1.3646 6.4260 -1.4746
-1.3212 6.4152 -1.4701
-1.2801 6.4146 -1.4681
-1.2407 6.4223 -1.4681
-1.2009 6.4279 -1.4676
-1.1616 6.4361 -1.4679
-1.1216 6.4402 -1.4672
-1.0801 6.4355 -1.4645
-1.0385 6.4285 -1.4613
-0.9985 6.4319 -1.4606
-0.9591 6.4379 -1.4606
-0.9195 6.4437 -1.4606
-0.8797 6.4472 -1.4602
-0.8393 6.4458 -1.4586
-0.7986 6.4421 -1.4566
-0.7588 6.4449 -1.4561
-0.7191 6.4475 -1.4557
-0.6790 6.4470 -1.4546
-0.6396 6.4530 -1.4550
-0.5990 6.4461 -1.4525
-0.5594 6.4496 -1.4525
-0.5199 6.4530 -1.4525
-0.4801 6.4541 -1.4521
-0.4408 6.4608 -1.4530
-0.4009 6.4595 -1.4521
-0.3608 6.4550 -1.4505
-0.3214 6.4610 -1.4514
-0.2817 6.4619 -1.4512
-0.2421 6.4645 -1.4514
-0.2024 6.4648 -1.4512
-0.1628 6.4689 -1.4519
-0.1232 6.4717 -1.4523
-0.0834 6.4684 -1.4514
-0.0437 6.4698 -1.4516
-0.0040 6.4719 -1.4521
0.0357 6.4708 -1.4519
0.0754 6.4676 -1.4512
0.1150 6.4660 -1.4510
0.1548 6.4681 -1.4516
0.1944 6.4661 -1.4514
0.2342 6.4677 -1.4521
0.2740 6.4690 -1.4528
0.3136 6.4643 -1.4521
0.3535 6.4671 -1.4532
0.3933 6.4678 -1.4539
0.4334 6.4711 -1.4552
0.4731 6.4683 -1.4552
0.5130 6.4682 -1.4559
0.5530 6.4688 -1.4568
0.5933 6.4720 -1.4584
0.6334 6.4722 -1.4593
0.6738 6.4749 -1.4609
0.7142 6.4765 -1.4622
0.7537 6.4701 -1.4618
0.7939 6.4701 -1.4629
0.8344 6.4709 -1.4642
0.8747 6.4705 -1.4654
0.9151 6.4699 -1.4665
0.9559 6.4718 -1.4683
0.9962 6.4697 -1.4692
1.0355 6.4616 -1.4688
1.0771 6.4666 -1.4715
1.1187 6.4714 -1.4742
1.1586 6.4654 -1.4744
1.2004 6.4696 -1.4771
1.2421 6.4727 -1.4796
1.2827 6.4697 -1.4807
1.3237 6.4684 -1.4823
1.3644 6.4649 -1.4834
1.4047 6.4593 -1.4841
1.4479 6.4667 -1.4879
1.4886 6.4624 -1.4890
1.5280 6.4522 -1.4888
1.5683 6.4456 -1.4895
1.6123 6.4538 -1.4938
1.6548 6.4551 -1.4965
1.6983 6.4599 -1.5001
1.7404 6.4588 -1.5023
1.7806 6.4499 -1.5028
1.8236 6.4510 -1.5057
1.8669 6.4528 -1.5089
1.9092 6.4506 -1.5111
1.9513 6.4471 -1.5131
1.9937 6.4443 -1.5154
2.0344 6.4357 -1.5163
2.0759 6.4296 -1.5179
2.1199 6.4306 -1.5212
2.1627 6.4276 -1.5237
2.2053 6.4235 -1.5260
2.2443 6.4089 -1.5258
2.2859 6.4014 -1.5273
2.3281 6.3955 -1.5294
2.3711 6.3912 -1.5318
2.4120 6.3810 -1.5330
2.4535 6.3725 -1.5345
2.4919 6.3555 -1.5341
2.5308 6.3401 -1.5341
2.5704 6.3262 -1.5345
2.6084 6.3086 -1.5341
2.6463 6.2906 -1.5336
2.6879 6.2814 -1.5354
2.7276 6.2675 -1.5361
2.7668 6.2524 -1.5366
2.8051 6.2353 -1.5366
2.8385 6.2074 -1.5339
2.8790 6.1952 -1.5352
2.9182 6.1800 -1.5359
2.9581 6.1664 -1.5370
2.9972 6.1507 -1.5377
3.0383 6.1392 -1.5395
3.0759 6.1205 -1.5395
3.1165 6.1076 -1.5411
3.1450 6.0710 -1.5366
3.1835 6.0542 -1.5372
3.2179 6.0294 -1.5359
3.2557 6.0112 -1.5363
3.2926 5.9912 -1.5363
3.3312 5.9742 -1.5372
3.3721 5.9613 -1.5393
3.4134 5.9490 -1.5415
3.4518 5.9313 -1.5424
3.4896 5.9125 -1.5431
3.5234 5.8868 -1.5420
3.5539 5.8559 -1.5395
3.5846 5.8257 -1.5372
3.6234 5.8086 -1.5386
3.6647 5.7953 -1.5411
3.7044 5.7792 -1.5429
3.7435 5.7621 -1.5444
3.7632 5.7154 -1.5379
3.7972 5.6906 -1.5375
3.8309 5.6656 -1.5370
3.8799 5.6629 -1.5429
3.9185 5.6446 -1.5444
3.9575 5.6268 -1.5463
3.9976 5.6103 -1.5485
4.0417 5.5991 -1.5523
4.0690 5.5648 -1.5496
4.0985 5.5335 -1.5478
4.1294 5.5043 -1.5467
4.1614 5.4765 -1.5460
4.1955 5.4517 -1.5463
4.2300 5.4274 -1.5467
4.2687 5.4082 -1.5487
4.3000 5.3796 -1.5481
4.3292 5.3486 -1.5467
4.3663 5.3272 -1.5483
4.4045 5.3071 -1.5503
4.4370 5.2799 -1.5503
4.4718 5.2556 -1.5512
4.4983 5.2214 -1.5492
4.5251 5.1878 -1.5474
4.5684 5.1731 -1.5514
4.5968 5.1413 -1.5503
4.6257 5.1102 -1.5494
4.6537 5.0781 -1.5483
4.6907 5.0559 -1.5503
4.7310 5.0369 -1.5535
4.7631 5.0092 -1.5539
4.7938 4.9799 -1.5539
4.8208 4.9469 -1.5528
4.8511 4.9172 -1.5528
4.8826 4.8888 -1.5532
4.9194 4.8656 -1.5555
4.9485 4.8346 -1.5553
4.9703 4.7967 -1.5528
5.0053 4.7715 -1.5546
5.0387 4.7447 -1.5559
5.0663 4.7124 -1.5555
5.0951 4.6812 -1.5555
5.1231 4.6492 -1.5553
5.1479 4.6144 -1.5541
5.1834 4.5892 -1.5564
5.2166 4.5618 -1.5580
5.2371 4.5233 -1.5557
5.2625 4.4892 -1.5550
5.3056 4.4700 -1.5598
5.3322 4.4368 -1.5595
5.3586 4.4033 -1.5593
5.3862 4.3710 -1.5595
5.4069 4.3330 -1.5577
5.4379 4.3034 -1.5591
5.4681 4.2729 -1.5602
5.4973 4.2417 -1.5611
5.5263 4.2102 -1.5620
5.5512 4.1756 -1.5618
5.5713 4.1374 -1.5602
5.6013 4.1066 -1.5616
5.6319 4.0762 -1.5631
5.6497 4.0364 -1.5611
5.6688 3.9978 -1.5595
5.7044 3.9707 -1.5627
5.7302 3.9367 -1.5631
5.7478 3.8971 -1.5613
5.7700 3.8607 -1.5609
5.8058 3.8333 -1.5643
5.8325 3.7997 -1.5652
5.8598 3.7665 -1.5663
5.8795 3.7284 -1.5654
5.8981 3.6896 -1.5643
5.9231 3.6549 -1.5650
5.9471 3.6195 -1.5654
5.9650 3.5805 -1.5643
5.9877 3.5443 -1.5645
6.0094 3.5075 -1.5645
6.0316 3.4710 -1.5647
6.0604 3.4383 -1.5668
6.0806 3.4005 -1.5665
6.0996 3.3622 -1.5661
6.1287 3.3294 -1.5683
6.1636 3.2995 -1.5722
6.1932 3.2667 -1.5746
6.1967 3.2201 -1.5704
6.2077 3.1775 -1.5681
6.2262 3.1390 -1.5679
6.2436 3.0998 -1.5674
6.2677 3.0640 -1.5688
6.2917 3.0280 -1.5701
6.3075 2.9881 -1.5695
6.3248 2.9490 -1.5692
6.3313 2.9048 -1.5663
6.3508 2.8667 -1.5668
6.3878 2.8364 -1.5717
6.4185 2.8030 -1.5751
6.4446 2.7674 -1.5773
6.4578 2.7263 -1.5764
6.4591 2.6803 -1.5726
6.4736 2.6399 -1.5722
6.4906 2.6004 -1.5724
6.5083 2.5613 -1.5728
6.5302 2.5238 -1.5744
6.5547 2.4871 -1.5767
6.5689 2.4465 -1.5764
6.5802 2.4048 -1.5755
6.5975 2.3654 -1.5762
6.6165 2.3265 -1.5773
6.6187 2.2817 -1.5744
6.6270 2.2392 -1.5731
6.6545 2.2031 -1.5764
6.6920 2.1700 -1.5823
6.6764 2.1198 -1.5753
6.6967 2.0811 -1.5771
6.7206 2.0433 -1.5798
6.7264 2.0001 -1.5782
6.7610 1.9653 -1.5836
6.7692 1.9227 -1.5827
6.7696 1.8780 -1.5800
6.7895 1.8388 -1.5821
6.8119 1.8001 -1.5848
6.8361 1.7616 -1.5879
6.8477 1.7199 -1.5882
6.8562 1.6774 -1.5877
6.8531 1.6321 -1.5846
6.8611 1.5896 -1.5841
6.8489 1.5425 -1.5789
6.8601 1.5009 -1.5794
6.8825 1.4616 -1.5825
6.8904 1.4192 -1.5823
6.9019 1.3774 -1.5830
6.9197 1.3369 -1.5852
6.9221 1.2934 -1.5839
6.9318 1.2512 -1.5843
6.9384 1.2085 -1.5841
6.9370 1.1644 -1.5821
6.9479 1.1225 -1.5830
6.9527 1.0795 -1.5825
6.9428 1.0344 -1.5787
6.9529 0.9923 -1.5796
6.9618 0.9500 -1.5803
6.9819 0.9092 -1.5836
7.0000 0.8679 -1.5866
6.9935 0.8236 -1.5839
6.9917 0.7799 -1.5823
6.9915 0.7364 -1.5812
7.0007 0.6940 -1.5823
7.0107 0.6516 -1.5836
7.0087 0.6081 -1.5823
7.0240 0.5660 -1.5850
7.0254 0.5227 -1.5846
7.0207 0.4791 -1.5827
7.0128 0.4353 -1.5803
7.0299 0.3931 -1.5836
7.0429 0.3505 -1.5861
7.0430 0.3072 -1.5857
7.0360 0.2636 -1.5836
7.0394 0.2205 -1.5841
7.0650 0.1779 -1.5897
7.0766 0.1348 -1.5922
7.0764 0.0914 -1.5920
7.0807 0.0480 -1.5929
7.0877 0.0045 -1.5945
7.0729 -0.0389 -1.5911
7.0677 -0.0822 -1.5900
7.0632 -0.1255 -1.5891
7.0739 -0.1691 -1.5918
7.0845 -0.2129 -1.5945
7.0733 -0.2560 -1.5922
7.0696 -0.2993 -1.5918
7.0716 -0.3429 -1.5927
7.0761 -0.3866 -1.5942
7.0785 -0.4303 -1.5954
7.0640 -0.4730 -1.5927
7.0503 -0.5155 -1.5902
7.0626 -0.5600 -1.5938
7.0677 -0.6041 -1.5958
7.0746 -0.6484 -1.5983
7.0763 -0.6924 -1.5996
7.0690 -0.7355 -1.5990
7.0692 -0.7794 -1.6001
7.0749 -0.8240 -1.6026
7.0717 -0.8676 -1.6030
7.0643 -0.9107 -1.6026
7.0566 -0.9538 -1.6021
7.0439 -0.9961 -1.6005
7.0444 -1.0403 -1.6021
7.0485 -1.0852 -1.6046
7.0455 -1.1290 -1.6055
7.0375 -1.1721 -1.6053
7.0398 -1.2169 -1.6075
7.0389 -1.2613 -1.6091
7.0262 -1.3035 -1.6080
7.0181 -1.3466 -1.6080
7.0173 -1.3912 -1.6098
7.0068 -1.4338 -1.6093
7.0112 -1.4796 -1.6125
6.9982 -1.5218 -1.6116
6.9944 -1.5659 -1.6129
6.9904 -1.6101 -1.6143
6.9803 -1.6530 -1.6143
6.9767 -1.6974 -1.6159
6.9747 -1.7423 -1.6179
6.9667 -1.7858 -1.6186
6.9528 -1.8278 -1.6179
6.9602 -1.8755 -1.6224
6.9458 -1.9174 -1.6217
6.9320 -1.9594 -1.6213
6.9105 -1.9992 -1.6190
6.9084 -2.0446 -1.6215
6.9004 -2.0884 -1.6226
6.8911 -2.1318 -1.6235
6.8807 -2.1749 -1.6242
6.8700 -2.2180 -1.6249
6.8581 -2.2607 -1.6253
6.8524 -2.3056 -1.6274
6.8391 -2.3479 -1.6276
6.8245 -2.3898 -1.6276
6.8143 -2.4333 -1.6287
6.7993 -2.4750 -1.6287
6.7867 -2.5177 -1.6294
6.7802 -2.5628 -1.6316
6.7880 -2.6134 -1.6375
6.7946 -2.6639 -1.6431
6.7980 -2.7135 -1.6481
6.7767 -2.7533 -1.6470
6.7093 -2.7740 -1.6343
6.6409 -2.7936 -1.6215
6.5591 -2.8067 -1.6053
6.4212 -2.7944 -1.5749
6.3897 -2.8275 -1.5713
6.3153 -2.8411 -1.5568
6.2473 -2.8567 -1.5440
6.2111 -2.8863 -1.5393
6.1034 -2.8820 -1.5163
6.0487 -2.9017 -1.5068
6.0264 -2.9366 -1.5057
6.0371 -2.9878 -1.5131
6.1414 -3.0864 -1.5449
6.1648 -3.1458 -1.5559
6.1160 -3.1683 -1.5483
5.7575 -3.0276 -1.4597
5.8901 -3.1436 -1.4994
5.7491 -3.1138 -1.4674
5.8485 -3.2142 -1.4987
6.0908 -3.3961 -1.5681
6.0665 -3.4315 -1.5672
5.8704 -3.3684 -1.5206
5.9069 -3.4376 -1.5359
5.8395 -3.4466 -1.5235
5.9144 -3.5399 -1.5494
5.8967 -3.5786 -1.5505
5.6639 -3.4851 -1.4933
5.6192 -3.5053 -1.4870
6.4640 -4.0874 -1.7240
5.4134 -3.4700 -1.4424
5.3331 -3.4649 -1.4262
5.1881 -3.4161 -1.3919
5.1451 -3.4333 -1.3858
5.0836 -3.4375 -1.3746
5.0809 -3.4813 -1.3798
5.0971 -3.5386 -1.3904
5.2379 -3.6841 -1.4363
6.3222 -4.5046 -1.7506
6.3276 -4.5673 -1.7601
6.2830 -4.5939 -1.7553
6.2625 -4.6382 -1.7576
4.5152 -3.3877 -1.2608
4.4284 -3.3652 -1.2417
4.3752 -3.3674 -1.2322
4.3283 -3.3738 -1.2245
4.2853 -3.3828 -1.2180
4.2546 -3.4011 -1.2151
4.2034 -3.4026 -1.2061
4.1613 -3.4111 -1.1998
4.1253 -3.4241 -1.1952
4.0871 -3.4349 -1.1901
4.0518 -3.4480 -1.1858
4.0165 -3.4607 -1.1815
3.9827 -3.4744 -1.1777
3.9475 -3.4865 -1.1734
3.9173 -3.5029 -1.1707
3.8885 -3.5203 -1.1684
3.8546 -3.5329 -1.1646
3.8157 -3.5406 -1.1592
3.7811 -3.5519 -1.1551
3.7466 -3.5630 -1.1511
3.7120 -3.5737 -1.1470
3.6823 -3.5890 -1.1446
3.6512 -3.6026 -1.1416
3.6173 -3.6132 -1.1378
3.5793 -3.6194 -1.1326
3.5461 -3.6302 -1.1290
3.5069 -3.6343 -1.1234
3.4724 -3.6431 -1.1193
3.4353 -3.6487 -1.1144
3.4009 -3.6569 -1.1103
3.3705 -3.6691 -1.1076
3.3401 -3.6811 -1.1049
3.3083 -3.6913 -1.1018
3.2746 -3.6992 -1.0979
3.2236 -3.6869 -1.0880
3.1984 -3.7037 -1.0871
3.1592 -3.7040 -1.0813
3.1263 -3.7114 -1.0776
3.0898 -3.7140 -1.0727
3.0502 -3.7126 -1.0666
3.0133 -3.7138 -1.0614
2.9746 -3.7125 -1.0556
2.9354 -3.7100 -1.0495
2.8994 -3.7111 -1.0445
2.8653 -3.7141 -1.0402
2.8300 -3.7154 -1.0355
2.8019 -3.7257 -1.0335
2.7650 -3.7240 -1.0281
2.7439 -3.7433 -1.0288
2.7083 -3.7427 -1.0238
2.6824 -3.7553 -1.0227
2.6526 -3.7621 -1.0200
2.6205 -3.7655 -1.0164
2.5946 -3.7775 -1.0152
2.5659 -3.7853 -1.0130
2.5378 -3.7937 -1.0110
2.5075 -3.7986 -1.0080
2.4804 -3.8082 -1.0065
2.4533 -3.8176 -1.0049
2.4236 -3.8227 -1.0022
2.3959 -3.8309 -1.0004
2.3688 -3.8397 -0.9988
2.3416 -3.8484 -0.9972
2.3130 -3.8543 -0.9950
2.2848 -3.8609 -0.9929
2.2606 -3.8740 -0.9927
2.2348 -3.8844 -0.9918
2.2066 -3.8904 -0.9898
2.1775 -3.8946 -0.9873
2.1517 -3.9044 -0.9864
2.1235 -3.9099 -0.9844
2.0971 -3.9185 -0.9832
2.0681 -3.9218 -0.9808
2.0444 -3.9353 -0.9810
2.0189 -3.9452 -0.9803
1.9951 -3.9584 -0.9805
1.9673 -3.9636 -0.9787
1.9382 -3.9659 -0.9763
1.9126 -3.9751 -0.9756
1.8869 -3.9841 -0.9749
1.8624 -3.9956 -0.9749
1.8342 -3.9990 -0.9729
1.8084 -4.0075 -0.9722
1.7810 -4.0123 -0.9706
1.7548 -4.0196 -0.9697
1.7294 -4.0285 -0.9693
1.7050 -4.0399 -0.9695
1.6794 -4.0485 -0.9691
1.6516 -4.0515 -0.9673
1.6263 -4.0607 -0.9670
1.6003 -4.0679 -0.9664
1.5736 -4.0731 -0.9652
1.5468 -4.0781 -0.9641
1.5218 -4.0875 -0.9641
1.4957 -4.0940 -0.9634
1.4705 -4.1031 -0.9634
1.4456 -4.1130 -0.9636
1.4191 -4.1181 -0.9627
1.3926 -4.1230 -0.9618
1.3688 -4.1361 -0.9630
1.3419 -4.1398 -0.9618
1.3170 -4.1498 -0.9623
1.2921 -4.1597 -0.9627
1.2671 -4.1694 -0.9632
1.2404 -4.1734 -0.9623
1.2151 -4.1818 -0.9625
1.1899 -4.1911 -0.9630
1.1634 -4.1955 -0.9623
1.1366 -4.1988 -0.9614
1.1108 -4.2057 -0.9614
1.0840 -4.2086 -0.9605
1.0565 -4.2086 -0.9589
1.0300 -4.2122 -0.9582
1.0064 -4.2279 -0.9605
0.9826 -4.2435 -0.9627
0.9576 -4.2542 -0.9639
0.9315 -4.2600 -0.9639
0.9049 -4.2637 -0.9634
0.8790 -4.2701 -0.9636
0.8524 -4.2735 -0.9632
0.8270 -4.2835 -0.9643
0.8020 -4.2952 -0.9659
0.7753 -4.2981 -0.9655
0.7502 -4.3104 -0.9673
0.7235 -4.3130 -0.9668
0.6974 -4.3203 -0.9675
0.6712 -4.3264 -0.9679
0.6451 -4.3333 -0.9686
0.6190 -4.3411 -0.9695
0.5938 -4.3554 -0.9720
0.5671 -4.3590 -0.9720
0.5404 -4.3624 -0.9720
0.5136 -4.3656 -0.9720
0.4889 -4.3880 -0.9765
0.4621 -4.3919 -0.9767
0.4353 -4.3966 -0.9772
0.4085 -4.4002 -0.9774
0.3815 -4.4036 -0.9776
0.3550 -4.4116 -0.9790
0.3283 -4.4196 -0.9803
0.3016 -4.4273 -0.9817
0.2749 -4.4359 -0.9832
0.2474 -4.4326 -0.9821
0.2203 -4.4360 -0.9826
