1.2458 -4.1446 3.1457
1.2260 -4.1716 3.1603
1.1689 -4.0692 3.0777
1.1365 -4.0497 3.0578
1.0712 -3.9089 2.9471
1.0484 -3.9201 2.9506
1.0242 -3.9256 2.9501
0.9965 -3.9177 2.9395
0.9652 -3.8946 2.9178
0.9396 -3.8934 2.9126
0.9140 -3.8920 2.9073
0.8894 -3.8944 2.9050
0.8644 -3.8950 2.9014
0.8536 -3.9612 2.9465
0.8230 -3.9363 2.9243
0.7939 -3.9166 2.9061
0.7678 -3.9111 2.8985
0.7459 -3.9269 2.9067
0.7256 -3.9521 2.9219
0.7043 -3.9732 2.9342
0.6739 -3.9423 2.9085
0.6493 -3.9440 2.9067
0.6283 -3.9679 2.9214
0.6038 -3.9709 2.9208
0.5818 -3.9914 2.9331
0.7200 -5.1638 3.7858
0.7504 -5.6357 4.1267
0.7117 -5.6080 4.1032
0.6711 -5.5608 4.0657
0.6421 -5.6099 4.0985
0.6970 -6.4414 4.7000
0.5669 -5.5553 4.0534
0.3702 -3.8569 2.8183
0.4380 -4.8828 3.5609
0.3274 -3.9161 2.8581
0.3028 -3.9108 2.8528
0.2786 -3.9093 2.8505
0.2563 -3.9377 2.8698
0.2313 -3.9246 2.8593
0.2035 -3.8555 2.8083
0.1782 -3.8219 2.7831
0.1557 -3.8456 2.7995
0.1332 -3.8781 2.8224
0.1098 -3.8926 2.8323
0.0903 -4.0990 2.9811
0.0667 -4.1984 3.0525
0.0394 -4.0382 2.9366
0.0145 -4.0027 2.9108
-0.0101 -4.0254 2.9272
-0.0535 -6.0962 4.4236
-0.0607 -4.1077 2.9870
-0.0843 -4.0286 2.9301
-0.1078 -3.9859 2.8997
-0.1311 -3.9511 2.8751
-0.2276 -5.7685 4.1899
-0.2632 -5.7710 4.1928
-0.1621 -3.1451 2.2941
-0.1800 -3.1213 2.2777
-0.1994 -3.1234 2.2801
-0.2175 -3.1076 2.2695
-0.2365 -3.1046 2.2683
-0.2551 -3.0982 2.2648
-0.2739 -3.0942 2.2631
-0.2953 -3.1183 2.2818
-0.3140 -3.1115 2.2783
-0.3354 -3.1313 2.2941
-0.3588 -3.1662 2.3211
-0.3740 -3.1286 2.2953
-0.3891 -3.0941 2.2719
-0.4042 -3.0619 2.2502
-0.4227 -3.0577 2.2490
-0.4560 -3.1554 2.3222
-0.4768 -3.1621 2.3292
-0.4851 -3.0887 2.2777
-0.4989 -3.0544 2.2549
-0.5082 -2.9954 2.2139
-0.5258 -2.9882 2.2109
-0.5325 -2.9211 2.1641
-0.5506 -2.9186 2.1647
-0.5814 -2.9812 2.2133
-0.5977 -2.9681 2.2063
-0.6143 -2.9564 2.2004
-0.6307 -2.9446 2.1945
-0.6479 -2.9368 2.1916
-0.6686 -2.9446 2.2004
-0.7613 -3.2593 2.4370
-0.8199 -3.4153 2.5565
-0.8463 -3.4323 2.5729
-0.8853 -3.4977 2.6256
-0.9220 -3.5510 2.6695
-0.9559 -3.5907 2.7035
-1.0100 -3.7021 2.7913
-1.0532 -3.7692 2.8464
-0.8850 -3.0949 2.3445
-0.8812 -3.0116 2.2859
-0.9059 -3.0271 2.3017
-0.9174 -2.9982 2.2842
-0.9306 -2.9763 2.2719
-0.9432 -2.9528 2.2584
-0.9651 -2.9585 2.2672
-0.9873 -2.9648 2.2765
-0.9966 -2.9326 2.2566
-1.0061 -2.9020 2.2379
-1.0290 -2.9103 2.2490
-1.0554 -2.9275 2.2672
-1.0784 -2.9347 2.2777
-1.0909 -2.9136 2.2666
-1.1033 -2.8925 2.2555
-1.1322 -2.9143 2.2777
-1.1510 -2.9096 2.2795
-1.1700 -2.9055 2.2818
-1.1921 -2.9087 2.2900
-1.2231 -2.9328 2.3146
-1.3897 -3.2751 2.5893
-1.4998 -3.4749 2.7533
-1.5168 -3.4559 2.7457
-1.5396 -3.4503 2.7486
-1.5688 -3.4585 2.7626
-1.5904 -3.4495 2.7632
-1.6001 -3.4155 2.7439
-1.6012 -3.3639 2.7105
-1.5918 -3.2920 2.6607
-1.5776 -3.2123 2.6045
-1.5919 -3.1917 2.5957
-1.6048 -3.1689 2.5852
-1.6298 -3.1698 2.5940
-1.6428 -3.1475 2.5840
-1.6587 -3.1309 2.5787
-1.6660 -3.0986 2.5606
-1.7195 -3.1516 2.6127
-1.7722 -3.2012 2.6625
-2.4938 -4.4388 3.6974
-1.7371 -3.0490 2.5541
-1.7330 -2.9990 2.5213
-2.5283 -4.3124 3.6306
-2.4967 -4.1993 3.5486
-2.5224 -4.1839 3.5486
-2.5459 -4.1649 3.5457
-2.5624 -4.1347 3.5334
-2.5847 -4.1141 3.5293
-2.6017 -4.0852 3.5181
2.6925 -6.1841 4.7612
2.6490 -6.1877 4.7515
2.6005 -6.1790 4.7325
2.5594 -6.1872 4.7267
2.5196 -6.1983 4.7233
2.4879 -6.2296 4.7354
2.4514 -6.2493 4.7388
2.4157 -6.2711 4.7440
1.6698 -4.4167 3.3389
1.6321 -4.3984 3.3176
1.6020 -4.3999 3.3113
1.5665 -4.3858 3.2935
1.4943 -4.2664 3.1974
1.4333 -4.1741 3.1221
1.3969 -4.1511 3.0985
1.3437 -4.0757 3.0364
1.3177 -4.0807 3.0341
1.2917 -4.0856 3.0318
1.2934 -4.1802 3.0956
1.2564 -4.1505 3.0680
1.2186 -4.1165 3.0375
1.1901 -4.1129 3.0295
1.1619 -4.1099 3.0220
1.1378 -4.1209 3.0249
1.0777 -3.9991 2.9311
1.0450 -3.9748 2.9087
0.9114 -3.5556 2.5998
0.8572 -3.4318 2.5061
0.8289 -3.4076 2.4848
0.8124 -3.4309 2.4980
0.9132 -3.9643 2.8794
0.8327 -3.7192 2.6988
0.8468 -3.8937 2.8207
0.8352 -3.9572 2.8627
0.8135 -3.9751 2.8719
0.7915 -3.9921 2.8805
0.7721 -4.0234 2.8995
0.7707 -4.1535 2.9892
0.7591 -4.2354 3.0444
0.7234 -4.1836 3.0042
0.6745 -4.0492 2.9052
0.6499 -4.0548 2.9064
0.8117 -5.2682 3.7668
0.7803 -5.2796 3.7714
0.7433 -5.2519 3.7484
0.7155 -5.2888 3.7714
0.6812 -5.2793 3.7616
0.6431 -5.2371 3.7289
0.6043 -5.1840 3.6886
0.4237 -3.8428 2.7373
0.4017 -3.8608 2.7482
0.3801 -3.8843 2.7632
0.3589 -3.9151 2.7833
0.3306 -3.8675 2.7482
0.3063 -3.8621 2.7430
0.2825 -3.8623 2.7419
0.2583 -3.8574 2.7373
0.2336 -3.8418 2.7252
0.2092 -3.8285 2.7149
0.1879 -3.8738 2.7459
0.1651 -3.8978 2.7620
0.1438 -3.9706 2.8126
0.1197 -3.9796 2.8184
0.0956 -3.9934 2.8276
0.0719 -4.0397 2.8598
0.0612 -5.2114 3.6834
0.0291 -5.1912 3.6690
-0.0028 -5.1709 3.6547
-0.0281 -4.1654 2.9478
-0.0764 -5.9876 4.2292
-0.1123 -5.9412 4.1970
-0.1493 -5.9601 4.2108
-0.1673 -5.3597 3.7892
-0.2002 -5.3594 3.7898
-0.2320 -5.3335 3.7726
-0.2662 -5.3614 3.7933
-0.3010 -5.3948 3.8180
-0.1934 -3.1116 2.2110
-0.2112 -3.0907 2.1972
-0.4413 -5.9423 4.2085
-0.2607 -3.2331 2.2996
-0.2646 -3.0464 2.1691
-0.2856 -3.0700 2.1869
-0.3059 -3.0828 2.1972
-0.3239 -3.0719 2.1909
-0.3423 -3.0666 2.1886
-0.3562 -3.0222 2.1587
-0.3744 -3.0175 2.1570
-0.3961 -3.0395 2.1742
-0.4151 -3.0395 2.1760
-0.4329 -3.0312 2.1719
-0.4522 -3.0333 2.1754
-0.4678 -3.0111 2.1616
-0.4782 -2.9581 2.1259
-0.4972 -2.9599 2.1294
-0.5237 -3.0052 2.1639
-0.5364 -2.9697 2.1409
-0.5540 -2.9632 2.1386
-0.5780 -2.9902 2.1604
-0.5997 -3.0035 2.1725
-0.6198 -3.0078 2.1783
-0.6360 -2.9935 2.1708
-0.6540 -2.9879 2.1696
-0.6767 -3.0030 2.1834
-0.7430 -3.2060 2.3330
-0.7500 -3.1481 2.2944
-0.7751 -3.1673 2.3117
-0.8015 -3.1902 2.3318
-0.8204 -3.1829 2.3301
-0.8114 -3.0694 2.2513
-0.8229 -3.0375 2.2317
-0.8391 -3.0237 2.2254
-0.8601 -3.0272 2.2317
-0.8800 -3.0266 2.2352
-0.8981 -3.0196 2.2340
-0.9124 -2.9999 2.2237
-0.9361 -3.0114 2.2363
-0.9630 -3.0321 2.2559
-0.9899 -3.0519 2.2749
-1.0073 -3.0418 2.2720
-1.0231 -3.0271 2.2657
-1.0472 -3.0370 2.2778
-1.0634 -3.0236 2.2726
-1.0794 -3.0100 2.2674
-1.0931 -2.9903 2.2576
-1.1026 -2.9598 2.2398
-1.1283 -2.9728 2.2547
-1.1391 -2.9468 2.2404
-1.1587 -2.9435 2.2432
-1.1962 -2.9850 2.2801
-1.2105 -2.9677 2.2726
-1.5394 -3.7099 2.8431
-1.5453 -3.6604 2.8126
-1.5809 -3.6817 2.8362
-1.6130 -3.6937 2.8529
-1.5109 -3.4026 2.6366
-1.5018 -3.3269 2.5855
-1.5399 -3.3562 2.6154
-1.5422 -3.3074 2.5849
-1.5449 -3.2609 2.5561
-1.5688 -3.2595 2.5625
-1.6053 -3.2836 2.5889
-1.6160 -3.2547 2.5740
-1.6352 -3.2432 2.5728
-1.6632 -3.2492 2.5855
-1.6797 -3.2324 2.5803
-1.6957 -3.2148 2.5745
-1.7640 -3.2952 2.6470
-1.7920 -3.2987 2.6585
-2.3568 -4.2765 3.4522
-2.3866 -4.2684 3.4574
-2.4087 -4.2465 3.4516
-2.4343 -4.2310 3.4511
-2.4574 -4.2110 3.4470
-2.4811 -4.1923 3.4442
-2.5156 -4.1917 3.4562
-2.5633 -4.2126 3.4861
-2.5896 -4.1975 3.4867
-2.6023 -4.1607 3.4695
-2.6571 -4.1909 3.5080
-2.6686 -4.1525 3.4896
2.6671 -6.2190 4.6342
2.6048 -6.1781 4.5919
2.5725 -6.2077 4.6021
2.5331 -6.2203 4.5998
2.1961 -5.4904 4.0522
2.1451 -5.4599 4.0201
2.1080 -5.4637 4.0134
2.0706 -5.4665 4.0060
1.9701 -5.2995 3.8753
1.6714 -4.5837 3.3469
1.6352 -4.5713 3.3305
1.5739 -4.4869 3.2624
1.5455 -4.4942 3.2607
1.5126 -4.4879 3.2494
1.4801 -4.4822 3.2387
1.4473 -4.4747 3.2269
1.3292 -4.1985 3.0229
1.2872 -4.1545 2.9857
1.2632 -4.1670 2.9891
1.2545 -4.2317 3.0297
1.2232 -4.2211 3.0167
1.1944 -4.2182 3.0094
1.1618 -4.2015 2.9925
1.1265 -4.1735 2.9677
1.0946 -4.1564 2.9508
1.0659 -4.1510 2.9424
0.9984 -3.9900 2.8246
0.8485 -3.4841 2.4652
0.8183 -3.4522 2.4393
0.7947 -3.4467 2.4319
0.7733 -3.4507 2.4314
0.7519 -3.4546 2.4308
0.7331 -3.4705 2.4387
0.8263 -4.0300 2.8252
0.8048 -4.0512 2.8364
0.7910 -4.1137 2.8764
0.7826 -4.2086 2.9390
0.7608 -4.2353 2.9542
0.7468 -4.3090 3.0021
0.8294 -4.9621 3.4505
0.7870 -4.8937 3.3998
0.7576 -4.9025 3.4026
0.7830 -5.2789 3.6590
0.7553 -5.3163 3.6815
0.7339 -5.4035 3.7384
0.6239 -4.8188 3.3334
0.5809 -4.7144 3.2590
0.5504 -4.7047 3.2500
0.5217 -4.7088 3.2505
0.5472 -5.2279 3.6043
0.3849 -3.9207 2.7063
0.4336 -4.7036 3.2410
0.3373 -3.9309 2.7102
0.3107 -3.9024 2.6894
0.2972 -4.0443 2.7852
0.2802 -4.1598 2.8629
0.3022 -4.9250 3.3846
0.2160 -3.9295 2.7035
0.1921 -3.9357 2.7069
0.1683 -3.9442 2.7119
0.1444 -3.9518 2.7164
0.1201 -3.9509 2.7153
0.1226 -5.0055 3.4342
0.0933 -5.0796 3.4843
0.0617 -5.0479 3.4624
0.0306 -5.0341 3.4528
-0.0002 -5.0863 3.4883
-0.0316 -5.1077 3.5029
-0.0673 -5.4915 3.7649
-0.1002 -5.4447 3.7334
-0.1335 -5.4391 3.7300
-0.1661 -5.4134 3.7131
-0.1970 -5.3487 3.6697
-0.2321 -5.4002 3.7057
-0.2670 -5.4366 3.7317
-0.3131 -5.6684 3.8911
-0.3488 -5.6820 3.9018
-0.3840 -5.6847 3.9052
-0.4454 -6.0465 4.1542
-0.4975 -6.2322 4.2832
-0.2689 -3.1000 2.1418
-0.2873 -3.0917 2.1373
-0.3094 -3.1220 2.1593
-0.3276 -3.1110 2.1531
-0.3448 -3.0917 2.1412
-0.3622 -3.0764 2.1322
-0.3830 -3.0897 2.1429
-0.4139 -3.1799 2.2066
-0.4428 -3.2469 2.2545
-0.4644 -3.2564 2.2629
-0.4832 -3.2453 2.2573
-0.4982 -3.2104 2.2353
-0.4949 -3.0637 2.1362
-0.5164 -3.0769 2.1474
-0.5459 -3.1355 2.1902
-0.5617 -3.1126 2.1767
-0.5827 -3.1197 2.1841
-0.5863 -3.0349 2.1277
-0.6025 -3.0191 2.1193
-0.6207 -3.0137 2.1181
-0.6565 -3.0923 2.1756
-0.6692 -3.0592 2.1553
-0.6851 -3.0421 2.1463
-0.8038 -3.4726 2.4505
-0.8277 -3.4789 2.4584
-0.8797 -3.5998 2.5469
-0.8668 -3.4540 2.4483
-0.8760 -3.4022 2.4156
-0.8839 -3.3472 2.3807
-0.8657 -3.1981 2.2793
-0.8660 -3.1227 2.2297
-0.8789 -3.0951 2.2139
-0.9011 -3.1007 2.2218
-0.9262 -3.1157 2.2364
-0.9295 -3.0578 2.1993
-0.9155 -2.9463 2.1238
-0.9403 -2.9619 2.1390
-0.9800 -3.0229 2.1869
-1.0702 -3.2342 2.3429
-1.0473 -3.1007 2.2517
-1.0449 -3.0317 2.2066
-1.0785 -3.0681 2.2376
-1.0981 -3.0637 2.2393
-1.1254 -3.0802 2.2562
-1.2086 -3.2468 2.3824
-1.2019 -3.1690 2.3311
-1.2555 -3.2502 2.3959
-1.2953 -3.2932 2.4331
-1.3069 -3.2637 2.4173
-1.8388 -4.5164 3.3452
-1.8129 -4.3753 3.2494
-1.8547 -4.3998 3.2759
-1.9025 -4.4370 3.3119
-1.9036 -4.3654 3.2674
-1.5932 -3.5912 2.6990
-1.5481 -3.4322 2.5874
-1.5616 -3.4061 2.5750
-1.5797 -3.3905 2.5705
-1.5797 -3.3366 2.5373
-1.6026 -3.3321 2.5412
-1.6509 -3.3794 2.5846
-1.6752 -3.3766 2.5902
-1.7089 -3.3921 2.6100
-1.7447 -3.4110 2.6325
-1.7705 -3.4097 2.6398
-1.7887 -3.3937 2.6359
-2.3178 -4.3354 3.3722
-2.3502 -4.3320 3.3807
-2.3772 -4.3182 3.3812
-2.4181 -4.3295 3.4015
-2.4857 -4.3873 3.4584
-2.4858 -4.3253 3.4218
-2.5090 -4.3043 3.4173
-2.5329 -4.2845 3.4139
-2.5570 -4.2654 3.4111
-2.5655 -4.2206 3.3880
-2.5840 -4.1929 3.3784
-2.6228 -4.1980 3.3953
2.8616 -6.1701 4.5307
2.7981 -6.1314 4.4898
2.7608 -6.1492 4.4904
2.7153 -6.1485 4.4777
2.6686 -6.1444 4.4628
2.5994 -6.0871 4.4097
2.5614 -6.1014 4.4086
2.5283 -6.1278 4.4163
2.4963 -6.1571 4.4263
2.4616 -6.1800 4.4318
2.2026 -5.6290 4.0289
2.1314 -5.5467 3.9609
2.0908 -5.5426 3.9488
2.0097 -5.4278 3.8587
1.9446 -5.3523 3.7968
1.9343 -5.4278 3.8416
1.5682 -4.4849 3.1712
1.5264 -4.4527 3.1419
1.5146 -4.5086 3.1745
1.4851 -4.5123 3.1706
1.4467 -4.4880 3.1474
1.4174 -4.4912 3.1436
1.3986 -4.5285 3.1634
1.3487 -4.4636 3.1126
1.3229 -4.4773 3.1165
1.2441 -4.3068 2.9932
1.1919 -4.2229 2.9302
1.1750 -4.2630 2.9529
1.1654 -4.3322 2.9954
1.1492 -4.3787 3.0225
1.1317 -4.4229 3.0479
1.0909 -4.3747 3.0104
1.0155 -4.1804 2.8733
0.8251 -3.4865 2.3964
0.8090 -3.5150 2.4124
0.7663 -3.4248 2.3477
0.7301 -3.3593 2.3002
0.6970 -3.3042 2.2598
0.6754 -3.3019 2.2554
0.6577 -3.3191 2.2643
0.6353 -3.3124 2.2571
0.6147 -3.3146 2.2560
0.5945 -3.3191 2.2565
0.5686 -3.2907 2.2350
0.8082 -4.8679 3.2928
0.7740 -4.8456 3.2745
0.7405 -4.8256 3.2580
0.7140 -4.8515 3.2723
0.6826 -4.8442 3.2646
0.6280 -4.6624 3.1402
0.6180 -4.8117 3.2375
0.5938 -4.8601 3.2673
0.5661 -4.8818 3.2795
0.5380 -4.9026 3.2911
0.5072 -4.8984 3.2861
0.4738 -4.8674 3.2635
0.5052 -5.5483 3.7150
0.4754 -5.6028 3.7493
0.4410 -5.6048 3.7487
0.4009 -5.5284 3.6962
0.3242 -4.8780 3.2624
0.2932 -4.8616 3.2502
0.2651 -4.8957 3.2718
0.3461 -7.2582 4.8391
0.3020 -7.2693 4.8452
0.2551 -7.2052 4.8015
0.1475 -4.9949 3.3342
0.1178 -5.0374 3.3619
0.0866 -5.0188 3.3491
0.0559 -5.0284 3.3552
0.0249 -4.9978 3.3348
-0.0058 -5.0362 3.3602
-0.0373 -5.1019 3.4039
-0.0695 -5.1683 3.4481
-0.1046 -5.3327 3.5575
-0.1378 -5.3511 3.5702
-0.1676 -5.2552 3.5072
-0.2009 -5.2833 3.5265
-0.2342 -5.3002 3.5387
-0.3053 -6.0520 4.0389
-0.3269 -5.7796 3.8593
-0.3578 -5.7059 3.8117
-0.4063 -5.8982 3.9410
-0.4528 -6.0310 4.0311
-0.2699 -3.3469 2.2471
-0.2880 -3.3169 2.2283
-0.3093 -3.3259 2.2355
-0.3289 -3.3156 2.2300
-0.3456 -3.2796 2.2073
-0.3649 -3.2700 2.2024
-0.3842 -3.2610 2.1979
-0.4061 -3.2743 2.2084
-0.4271 -3.2784 2.2129
-0.4443 -3.2551 2.1990
-0.4642 -3.2515 2.1985
-0.4945 -3.3178 2.2449
-0.4982 -3.2085 2.1736
-0.5195 -3.2152 2.1803
-0.5360 -3.1931 2.1675
-0.5512 -3.1643 2.1504
-0.5565 -3.0838 2.0985
-0.5645 -3.0221 2.0592
-0.5795 -3.0006 2.0471
-0.5823 -2.9194 1.9946
-0.6168 -2.9957 2.0487
-0.6397 -3.0131 2.0631
-0.6587 -3.0115 2.0648
-0.9558 -4.2364 2.9004
-0.9735 -4.1947 2.8761
-1.0044 -4.2105 2.8910
-1.0609 -4.3289 2.9761
-0.8741 -3.4779 2.3986
-1.1280 -4.3696 3.0131
-1.1586 -4.3771 3.0231
-0.8725 -3.2208 2.2333
-0.8880 -3.2002 2.2228
-0.9145 -3.2187 2.2394
-0.9387 -3.2282 2.2499
-0.9222 -3.1010 2.1659
-0.9003 -2.9614 2.0730
-0.9142 -2.9423 2.0636
-0.9345 -2.9438 2.0686
-0.9525 -2.9380 2.0686
-0.9606 -2.9021 2.0476
-0.9920 -2.9364 2.0758
-1.0157 -2.9468 2.0874
-1.0932 -3.1086 2.2057
-1.1597 -3.2336 2.2985
-1.1703 -3.2014 2.2808
-1.1753 -3.1551 2.2532
-1.2288 -3.2374 2.3168
-1.2607 -3.2609 2.3389
-1.3095 -3.3259 2.3908
-1.3401 -3.3434 2.4091
-1.3707 -3.3598 2.4267
-1.3964 -3.3636 2.4356
-1.4050 -3.3266 2.4151
-1.4182 -3.3010 2.4030
-1.5070 -3.4488 2.5163
-1.6615 -3.7386 2.7335
-1.6888 -3.7382 2.7407
-1.9903 -4.3326 3.1822
-1.6911 -3.6243 2.6727
-1.6826 -3.5492 2.6252
-1.7583 -3.6506 2.7075
-2.1562 -4.4052 3.2729
-2.1943 -4.4142 3.2895
-2.2221 -4.4022 3.2906
-2.2571 -4.4040 3.3022
-2.3145 -4.4485 3.3458
-2.4276 -4.5962 3.4674
-2.4451 -4.5614 3.4525
-2.4594 -4.5215 3.4337
-2.5017 -4.5325 3.4536
-2.5302 -4.5185 3.4547
-2.5142 -4.4262 3.3961
-2.5184 -4.3710 3.3657
-2.5418 -4.3497 3.3613
-2.5697 -4.3361 3.3630
-2.6057 -4.3360 3.3751
-2.7986 -4.5924 3.5868
-2.8268 -4.5751 3.5868
2.8789 -6.1942 4.4412
2.8499 -6.2316 4.4553
2.8078 -6.2405 4.4494
2.7610 -6.2384 4.4358
2.7009 -6.2052 4.4005
2.6373 -6.1622 4.3586
2.5969 -6.1721 4.3543
2.5750 -6.2267 4.3814
2.5459 -6.2650 4.3972
2.5065 -6.2781 4.3956
2.1781 -5.5539 3.8816
2.1509 -5.5852 3.8941
2.1110 -5.5834 3.8838
2.0554 -5.5388 3.8441
2.0128 -5.5276 3.8278
1.9748 -5.5288 3.8202
1.9545 -5.5796 3.8468
1.6003 -4.6593 3.2090
1.5605 -4.6356 3.1861
1.4860 -4.5055 3.0911
1.4754 -4.5673 3.1269
1.4473 -4.5763 3.1269
1.4219 -4.5939 3.1329
1.3993 -4.6210 3.1454
1.3657 -4.6118 3.1334
1.2837 -4.4346 3.0085
1.2547 -4.4359 3.0041
1.2509 -4.5285 3.0612
1.2401 -4.5993 3.1035
1.2044 -4.5784 3.0845
1.1408 -4.4475 2.9922
0.8777 -3.5095 2.3619
0.8557 -3.5132 2.3608
0.8371 -3.5307 2.3690
0.8101 -3.5128 2.3538
0.7878 -3.5145 2.3516
0.7500 -3.4446 2.3022
0.7148 -3.3826 2.2581
0.6846 -3.3408 2.2277
0.6638 -3.3433 2.2266
0.6456 -3.3597 2.2348
0.6229 -3.3520 2.2272
0.6013 -3.3500 2.2234
0.5791 -3.3445 2.2174
0.5575 -3.3414 2.2130
0.5394 -3.3597 2.2228
0.5171 -3.3521 2.2158
0.7152 -4.8378 3.1856
0.4582 -3.2327 2.1337
0.4379 -3.2321 2.1315
0.6270 -4.8576 3.1905
0.5998 -4.8830 3.2046
0.5749 -4.9300 3.2329
0.6280 -5.6911 3.7262
0.5971 -5.7333 3.7512
0.5645 -5.7636 3.7686
0.6080 -6.6289 4.3287
0.4771 -5.5743 3.6414
0.4430 -5.5788 3.6425
0.3284 -4.8936 3.1948
0.2978 -4.8863 3.1889
0.2451 -4.4714 2.9188
0.2174 -4.4678 2.9156
0.1911 -4.4942 2.9319
0.1628 -4.4752 2.9188
0.1368 -4.5264 2.9514
0.1213 -5.0434 3.2856
0.0904 -5.0465 3.2872
0.0594 -5.0453 3.2861
0.0286 -5.0783 3.3073
-0.0027 -5.2732 3.4333
-0.0356 -5.3520 3.4844
-0.0685 -5.3567 3.4877
-0.0998 -5.2722 3.4333
-0.1324 -5.2816 3.4399
-0.1645 -5.2731 3.4350
-0.1977 -5.2947 3.4496
-0.2271 -5.2221 3.4035
-0.2977 -5.9936 3.9044
-0.3266 -5.8509 3.8131
-0.3682 -5.9401 3.8723
-0.3851 -5.6521 3.6871
-0.4146 -5.5802 3.6420
-0.2739 -3.4110 2.2353
-0.2962 -3.4252 2.2456
-0.3125 -3.3723 2.2125
-0.3307 -3.3461 2.1967
-0.3487 -3.3198 2.1810
-0.3695 -3.3218 2.1837
-0.3895 -3.3161 2.1815
-0.4106 -3.3195 2.1853
-0.4317 -3.3227 2.1891
-0.4500 -3.3050 2.1794
-0.4677 -3.2839 2.1674
-0.4774 -3.2113 2.1218
-0.4977 -3.2116 2.1239
-0.5152 -3.1952 2.1152
-0.5263 -3.1415 2.0821
-0.5293 -3.0447 2.0207
-0.5254 -2.9167 1.9387
-0.5435 -2.9142 1.9392
-0.5519 -2.8622 1.9072
-0.5687 -2.8547 1.9044
-0.5863 -2.8519 1.9050
-0.6043 -2.8507 1.9066
-0.6252 -2.8626 1.9169
-0.6424 -2.8570 1.9158
-0.6577 -2.8432 1.9093
-0.6650 -2.7967 1.8811
-0.6821 -2.7925 1.8811
-1.0467 -4.1708 2.8036
-1.0696 -4.1538 2.7966
-1.0963 -4.1520 2.7998
-0.9498 -3.5107 2.3744
-0.9624 -3.4725 2.3527
-0.8880 -3.1297 2.1261
-0.8694 -2.9945 2.0386
-0.8873 -2.9875 2.0376
-0.9034 -2.9747 2.0327
-0.9249 -2.9795 2.0397
-0.9345 -2.9466 2.0213
-0.9559 -2.9512 2.0283
-0.9740 -2.9453 2.0283
-1.0101 -2.9925 2.0647
-1.0613 -3.0815 2.1299
-1.1247 -3.2017 2.2168
-1.1472 -3.2026 2.2223
-1.1864 -3.2491 2.2592
-1.2157 -3.2669 2.2766
-1.2027 -3.1723 2.2163
-1.2391 -3.2087 2.2467
-1.2560 -3.1940 2.2418
-1.2393 -3.0959 2.1788
-1.2621 -3.0975 2.1853
-1.2849 -3.0990 2.1919
-1.3735 -3.2558 2.3076
-1.4243 -3.3191 2.3581
-1.4412 -3.3026 2.3527
-1.4543 -3.2776 2.3413
-1.4744 -3.2686 2.3413
-2.0761 -4.5268 3.2437
-2.1525 -4.6182 3.3182
-2.2034 -4.6527 3.3524
-2.2243 -4.6232 3.3410
-2.2689 -4.6426 3.3649
-2.3037 -4.6414 3.3741
-2.3310 -4.6250 3.3725
-2.3402 -4.5732 3.3453
-2.3461 -4.5163 3.3144
-2.4470 -4.6407 3.4160
-2.5163 -4.7018 3.4719
-2.5571 -4.7084 3.4882
-2.5410 -4.6110 3.4279
-2.5155 -4.4994 3.3567
-2.5360 -4.4714 3.3475
-2.5517 -4.4354 3.3323
-2.5856 -4.4313 3.3410
-2.6478 -4.4745 3.3855
-2.6964 -4.4935 3.4122
-2.7331 -4.4919 3.4236
-2.7641 -4.4808 3.4279
-2.7974 -4.4730 3.4350
3.0172 -6.3063 4.4185
2.9730 -6.3132 4.4105
2.9435 -6.3513 4.4243
2.8956 -6.3500 4.4110
2.8043 -6.2510 4.3306
2.6968 -6.1117 4.2231
2.6542 -6.1165 4.2151
2.6246 -6.1513 4.2278
2.6078 -6.2173 4.2619
2.5889 -6.2801 4.2939
2.5437 -6.2794 4.2827
2.4863 -6.2477 4.2507
2.2411 -5.7339 3.8935
2.1995 -5.7309 3.8823
2.1203 -5.6279 3.8040
2.0737 -5.6083 3.7822
1.6057 -4.4266 2.9830
1.5839 -4.4515 2.9931
1.5562 -4.4604 2.9926
1.5264 -4.4626 2.9878
1.5025 -4.4823 2.9947
1.4818 -4.5124 3.0086
1.4590 -4.5367 3.0187
1.4312 -4.5456 3.0187
1.3970 -4.5340 3.0054
1.3670 -4.5352 3.0006
1.3420 -4.5533 3.0070
1.3250 -4.5996 3.0320
1.3165 -4.6778 3.0778
1.3040 -4.7445 3.1161
1.2658 -4.7189 3.0943
1.2381 -4.7315 3.0975
0.9105 -3.5703 2.3388
0.8858 -3.5643 2.3313
0.8681 -3.5870 2.3425
0.8410 -3.5708 2.3287
0.8170 -3.5668 2.3228
0.7908 -3.5528 2.3106
0.7522 -3.4798 2.2605
0.7127 -3.3982 2.2051
0.6885 -3.3859 2.1945
0.6683 -3.3934 2.1966
0.6488 -3.4041 2.2009
0.6286 -3.4122 2.2035
0.6052 -3.4018 2.1945
0.5810 -3.3862 2.1822
0.5657 -3.4231 2.2035
0.5412 -3.4048 2.1897
0.5157 -3.3780 2.1705
0.4880 -3.3333 2.1402
0.4633 -3.3061 2.1210
0.4419 -3.3005 2.1157
0.4227 -3.3115 2.1210
0.3992 -3.2880 2.1045
0.3781 -3.2828 2.0997
0.6702 -6.1384 3.9052
0.6413 -6.2283 3.9595
0.5054 -5.2245 3.3227
0.4751 -5.2469 3.3350
0.4429 -5.2497 3.3350
0.4095 -5.2380 3.3259
0.2374 -3.3036 2.1045
0.2198 -3.3456 2.1301
0.2018 -3.3899 2.1572
0.1838 -3.4427 2.1897
0.1647 -3.4869 2.2168
0.1450 -3.5275 2.2419
0.1239 -3.5453 2.2525
0.1045 -3.6272 2.3036
0.0823 -3.6269 2.3031
0.0599 -3.6198 2.2983
0.0479 -4.5681 2.8946
0.0197 -4.5268 2.8685
-0.0082 -4.5793 2.9016
-0.0375 -4.7459 3.0064
-0.0764 -5.4549 3.4526
-0.1095 -5.4331 3.4393
-0.1432 -5.4468 3.4484
-0.1729 -5.3307 3.3760
-0.2050 -5.3152 3.3669
-0.2847 -6.3725 4.0335
-0.3055 -6.0097 3.8062
-0.3355 -5.8860 3.7295
-0.3809 -6.0308 3.8221
-0.4375 -6.3130 4.0016
-0.4847 -6.4233 4.0729
-0.5215 -6.3873 4.0521
-0.5403 -6.1512 3.9052
-0.5476 -5.8233 3.7002
-0.3211 -3.1970 2.0422
-0.3408 -3.1958 2.0427
-0.3634 -3.2206 2.0598
-0.3810 -3.1998 2.0481
-0.3990 -3.1848 2.0401
-0.4187 -3.1831 2.0406
-0.4389 -3.1855 2.0438
-0.4602 -3.1954 2.0518
-0.4823 -3.2092 2.0624
-0.5031 -3.2129 2.0667
-0.5363 -3.2933 2.1199
-0.5553 -3.2824 2.1152
-0.5266 -3.0005 1.9373
-0.5399 -2.9689 1.9192
-0.5512 -2.9289 1.8958
-0.5657 -2.9072 1.8841
-0.5797 -2.8846 1.8718
-0.5950 -2.8693 1.8644
-0.6175 -2.8888 1.8793
-0.6334 -2.8767 1.8740
-0.6538 -2.8852 1.8819
-0.6725 -2.8852 1.8846
-0.6902 -2.8810 1.8846
-0.7044 -2.8628 1.8756
-0.7236 -2.8650 1.8798
-0.7969 -3.0760 2.0198
-1.0652 -4.0120 2.6321
-0.8923 -3.2784 2.1583
-0.9063 -3.2508 2.1439
-0.9308 -3.2615 2.1546
-0.9520 -3.2598 2.1572
-0.9606 -3.2157 2.1322
-0.9682 -3.1701 2.1061
-0.9771 -3.1302 2.0837
-0.9724 -3.0491 2.0342
-0.9827 -3.0173 2.0172
-0.9937 -2.9887 2.0023
-1.0088 -2.9730 1.9959
-1.0328 -2.9835 2.0071
-1.0694 -3.0290 2.0417
-1.1281 -3.1339 2.1162
-1.1531 -3.1428 2.1269
-1.1815 -3.1603 2.1434
-1.1991 -3.1482 2.1402
-1.2187 -3.1416 2.1407
-1.2352 -3.1270 2.1359
-1.2666 -3.1500 2.1567
-1.2754 -3.1163 2.1391
-1.2971 -3.1146 2.1434
-1.3092 -3.0903 2.1322
-1.3298 -3.0861 2.1349
-1.3620 -3.1081 2.1556
-1.4619 -3.2814 2.2807
-1.8888 -4.1716 2.9016
-1.9101 -4.1507 2.8952
-1.9277 -4.1220 2.8835
-1.9341 -4.0704 2.8558
-1.9895 -4.1217 2.9000
-2.0137 -4.1072 2.8984
-2.4385 -4.8980 3.4627
-2.4529 -4.8520 3.4409
-2.4204 -4.7156 3.3552
-2.4219 -4.6481 3.3179
-2.4528 -4.6377 3.3211
-2.4860 -4.6315 3.3275
-2.5467 -4.6756 3.3701
-2.5999 -4.7044 3.4020
-2.6147 -4.6632 3.3839
-2.6449 -4.6500 3.3861
-2.6628 -4.6154 3.3728
-2.7355 -4.6749 3.4281
-2.7775 -4.6806 3.4446
-2.7460 -4.5634 3.3712
-2.7502 -4.5074 3.3424
-2.7778 -4.4905 3.3424
-2.8066 -4.4755 3.3440
-2.8458 -4.4768 3.3579
2.8930 -6.1749 4.1809
2.8636 -6.2111 4.1934
2.8184 -6.2130 4.1830
2.7328 -6.1242 4.1122
2.6962 -6.1432 4.1137
2.6558 -6.1533 4.1096
2.6183 -6.1703 4.1101
2.5840 -6.1949 4.1158
2.5421 -6.2012 4.1096
2.5024 -6.2127 4.1070
1.8164 -4.5938 3.0348
2.4095 -6.2008 4.0794
2.3184 -6.0767 3.9888
2.1506 -5.7431 3.7623
2.0943 -5.6993 3.7253
2.0556 -5.7016 3.7185
1.9852 -5.6143 3.6540
1.9518 -5.6296 3.6560
1.5538 -4.5748 2.9687
1.5301 -4.5972 2.9770
1.4936 -4.5813 2.9609
1.4644 -4.5872 2.9588
1.4482 -4.6344 2.9833
1.4315 -4.6815 3.0078
1.4200 -4.7474 3.0442
1.4096 -4.8200 3.0848
1.3383 -4.6833 2.9927
1.3006 -4.6593 2.9723
1.2789 -4.6928 2.9885
1.2501 -4.7005 2.9885
1.2180 -4.6957 2.9807
1.1881 -4.6990 2.9781
0.8914 -3.6230 2.2975
0.8642 -3.6076 2.2845
0.8393 -3.6012 2.2772
0.8164 -3.6030 2.2751
0.7971 -3.6204 2.2829
0.7736 -3.6194 2.2793
0.7252 -3.4987 2.2012
0.6860 -3.4152 2.1465
0.6658 -3.4235 2.1491
0.6456 -3.4318 2.1517
0.6265 -3.4466 2.1585
0.6074 -3.4621 2.1658
0.5852 -3.4599 2.1621
0.5609 -3.4449 2.1507
0.5312 -3.3943 2.1173
0.5071 -3.3755 2.1038
0.4856 -3.3735 2.1007
0.4641 -3.3705 2.0970
0.4421 -3.3631 2.0908
0.4226 -3.3751 2.0965
0.4041 -3.3963 2.1080
0.3834 -3.3996 2.1085
0.3620 -3.3976 2.1059
0.3401 -3.3887 2.0991
0.3185 -3.3831 2.0944
0.2925 -3.3263 2.0585
0.2740 -3.3502 2.0720
0.2546 -3.3671 2.0814
0.2362 -3.4010 2.1012
0.2158 -3.4100 2.1059
0.1953 -3.4181 2.1100
0.1768 -3.4661 2.1387
0.1554 -3.4646 2.1371
0.1351 -3.4902 2.1522
0.1164 -3.5703 2.2007
0.0954 -3.6042 2.2210
0.0740 -3.6381 2.2413
0.0524 -3.6854 2.2699
0.0347 -4.2201 2.5959
0.0089 -4.2560 2.6177
-0.0173 -4.2799 2.6323
-0.0473 -4.6912 2.8833
-0.0764 -4.7113 2.8958
-0.1056 -4.7270 2.9057
-0.1394 -4.8978 3.0104
-0.2028 -5.8883 3.6154
-0.2399 -5.9117 3.6305
-0.2758 -5.9024 3.6258
-0.3120 -5.8998 3.6253
-0.3494 -5.9182 3.6378
-0.3870 -5.9355 3.6498
-0.5523 -7.7589 4.7662
-0.5925 -7.6583 4.7068
-0.5439 -6.5026 4.0018
-0.5752 -6.4030 3.9430
-0.5624 -5.8529 3.6081
-0.5994 -5.8604 3.6149
-0.6315 -5.8209 3.5930
-0.3777 -3.2765 2.0335
-0.3954 -3.2537 2.0210
-0.4154 -3.2513 2.0210
-0.4345 -3.2427 2.0174
-0.4540 -3.2375 2.0158
-0.4697 -3.2059 1.9981
-0.4900 -3.2072 2.0007
-0.5082 -3.1948 1.9950
-0.5057 -3.0568 1.9117
-0.5336 -3.1075 1.9450
-0.5478 -3.0765 1.9278
-0.5576 -3.0235 1.8971
-0.5698 -2.9865 1.8762
-0.5863 -2.9737 1.8705
-0.6081 -2.9876 1.8815
-0.6268 -2.9855 1.8825
-0.6460 -2.9858 1.8851
-0.6589 -2.9576 1.8700
-0.6649 -2.9002 1.8367
-0.6860 -2.9102 1.8455
-0.7073 -2.9201 1.8544
-0.7667 -3.0839 1.9601
-0.7859 -3.0800 1.9606
-0.8007 -3.0594 1.9507
-0.8234 -3.0693 1.9601
-0.8442 -3.0716 1.9648
-0.8697 -3.0902 1.9799
-0.8910 -3.0930 1.9851
-0.9307 -3.1579 2.0299
-0.9377 -3.1113 2.0038
-0.9461 -3.0703 1.9814
-0.9626 -3.0571 1.9767
-0.9785 -3.0422 1.9710
-0.9992 -3.0427 1.9752
-1.0217 -3.0478 1.9825
-1.0450 -3.0552 1.9913
-1.0637 -3.0488 1.9913
-1.0799 -3.0349 1.9866
-1.0921 -3.0106 1.9752
-1.1188 -3.0263 1.9898
-1.1601 -3.0801 2.0293
-1.1812 -3.0785 2.0330
-1.2022 -3.0768 2.0366
-1.2619 -3.1725 2.1043
-1.2862 -3.1766 2.1121
-1.3079 -3.1742 2.1158
-1.3135 -3.1330 2.0939
-1.3277 -3.1131 2.0861
-1.3607 -3.1370 2.1074
-1.3950 -3.1630 2.1304
-1.8501 -4.1295 2.7818
-1.8733 -4.1134 2.7786
-1.9286 -4.1669 2.8224
-1.9574 -4.1619 2.8271
-1.9840 -4.1522 2.8286
-2.0105 -4.1422 2.8302
-2.5932 -5.2629 3.6003
-2.6021 -5.2003 3.5686
-2.5656 -5.0494 3.4764
-2.5020 -4.8499 3.3504
-2.4926 -4.7596 3.2988
-2.5089 -4.7200 3.2822
-2.5322 -4.6940 3.2749
-2.5196 -4.6027 3.2223
-2.5523 -4.5954 3.2280
-2.5809 -4.5804 3.2285
-2.6161 -4.5771 3.2374
-2.6408 -4.5550 3.2332
-2.6890 -4.5734 3.2577
-2.7366 -4.5898 3.2811
-2.7705 -4.5824 3.2879
-2.8190 -4.5988 3.3118
-2.8503 -4.5865 3.3155
-2.8712 -4.5574 3.3072
2.8516 -6.1774 4.0509
2.7997 -6.1642 4.0310
2.7692 -6.1977 4.0417
2.7280 -6.2075 4.0371
2.6967 -6.2400 4.0473
2.6520 -6.2413 4.0376
1.9557 -4.6794 3.0253
1.9227 -4.6809 3.0187
1.8952 -4.6958 3.0207
1.8569 -4.6834 3.0054
1.8231 -4.6819 2.9973
1.8024 -4.7139 3.0105
2.1981 -5.8595 3.7279
2.1547 -5.8527 3.7151
2.1237 -5.8795 3.7238
2.0911 -5.9022 3.7299
2.0489 -5.8978 3.7192
2.0107 -5.9046 3.7156
1.9821 -5.9397 3.7299
1.7706 -5.4151 3.3957
1.8538 -5.7906 3.6224
1.8205 -5.8093 3.6270
1.7839 -5.8170 3.6250
1.7528 -5.8435 3.6346
1.7314 -5.9037 3.6652
1.3456 -4.6914 2.9122
1.3249 -4.7286 2.9300
1.3031 -4.7632 2.9463
1.2743 -4.7728 2.9473
1.2476 -4.7905 2.9534
0.9439 -3.7136 2.2911
0.9279 -3.7469 2.3079
0.9020 -3.7408 2.3008
0.8718 -3.7153 2.2819
0.8458 -3.7063 2.2733
0.7791 -3.5123 2.1525
0.7548 -3.5043 2.1449
0.7295 -3.4904 2.1337
0.7021 -3.4653 2.1158
0.6756 -3.4425 2.0995
0.6590 -3.4711 2.1143
0.6397 -3.4861 2.1209
0.6198 -3.4984 2.1260
0.5988 -3.5047 2.1276
0.5727 -3.4803 2.1107
0.5400 -3.4115 2.0674
0.5140 -3.3815 2.0476
0.4890 -3.3548 2.0297
0.4767 -3.4183 2.0659
0.4500 -3.3776 2.0399
0.4313 -3.3965 2.0496
0.4135 -3.4248 2.0649
0.3915 -3.4187 2.0598
0.3671 -3.3885 2.0404
0.3459 -3.3873 2.0384
0.3253 -3.3910 2.0394
0.2994 -3.3355 2.0053
0.2842 -3.4008 2.0430
0.2641 -3.4136 2.0496
0.2433 -3.4160 2.0501
0.2225 -3.4209 2.0522
0.2012 -3.4162 2.0486
0.1803 -3.4191 2.0496
0.1595 -3.4253 2.0527
0.1380 -3.4133 2.0450
0.1174 -3.4252 2.0516
0.0962 -3.4164 2.0460
0.0751 -3.4144 2.0445
0.0549 -3.4630 2.0730
0.0408 -4.3065 2.5723
0.0147 -4.4486 2.6564
-0.0124 -4.3832 2.6177
-0.0390 -4.3530 2.5999
-0.0678 -4.4825 2.6768
-0.1016 -4.7668 2.8454
-0.1312 -4.7773 2.8521
-0.1630 -4.8486 2.8949
-0.1913 -4.8131 2.8745
-0.2197 -4.7869 2.8597
-0.3177 -6.0821 3.6285
-0.3419 -5.8585 3.4971
-0.3858 -5.9773 3.5689
-0.4342 -6.1388 3.6662
-0.3002 -3.9243 2.3528
-0.3224 -3.9001 2.3395
-0.3475 -3.9109 2.3472
-0.3758 -3.9541 2.3742
-0.4053 -4.0031 2.4047
-0.3387 -3.1605 1.9044
-0.3576 -3.1541 1.9019
-0.3819 -3.1928 1.9263
-0.4238 -3.3663 2.0313
-0.4431 -3.3534 2.0252
-0.4619 -3.3378 2.0175
-0.5009 -3.4618 2.0934
-0.4877 -3.2323 1.9579
-0.4994 -3.1783 1.9273
-0.5203 -3.1837 1.9324
-0.5433 -3.2008 1.9447
-0.5541 -3.1474 1.9146
-0.5656 -3.1016 1.8891
-0.5713 -3.0279 1.8468
-0.5859 -3.0041 1.8346
-0.6015 -2.9870 1.8265
-0.6137 -2.9537 1.8086
-0.6284 -2.9339 1.7989
-0.6519 -2.9552 1.8142
-0.6706 -2.9537 1.8158
-0.6854 -2.9353 1.8071
-0.7006 -2.9193 1.8000
-0.7268 -2.9484 1.8203
-0.7601 -3.0039 1.8570
-0.7903 -3.0441 1.8845
-0.8334 -3.1306 1.9406
-0.8533 -3.1280 1.9421
-0.8718 -3.1202 1.9406
-0.8928 -3.1214 1.9447
-0.9148 -3.1258 1.9508
-0.9407 -3.1423 1.9645
-0.9433 -3.0822 1.9309
-0.9640 -3.0821 1.9345
-0.9808 -3.0696 1.9304
-1.0057 -3.0823 1.9421
-1.0334 -3.1022 1.9584
-1.0402 -3.0600 1.9360
-1.0629 -3.0649 1.9431
-1.0874 -3.0745 1.9533
-1.0986 -3.0468 1.9401
-1.1155 -3.0351 1.9370
-1.1635 -3.1064 1.9864
-1.2127 -3.1779 2.0364
-1.2303 -3.1656 2.0333
-1.2332 -3.1164 2.0068
-1.2381 -3.0737 1.9844
-1.2438 -3.0342 1.9640
-1.6037 -3.8416 2.4873
-1.6074 -3.7850 2.4572
-1.6015 -3.7080 2.4139
-1.6790 -3.8225 2.4944
-1.7011 -3.8090 2.4924
-1.7244 -3.7985 2.4924
-2.2022 -4.7702 3.1333
-2.1989 -4.6873 3.0880
-2.2124 -4.6419 3.0671
-2.2359 -4.6182 3.0604
-2.2711 -4.6183 3.0696
-2.3090 -4.6235 3.0824
-2.3330 -4.6008 3.0767
-2.4882 -4.8326 3.2408
-2.5302 -4.8409 3.2566
-2.5567 -4.8192 3.2525
-2.5772 -4.7868 3.2413
-2.6466 -4.8441 3.2907
-2.6345 -4.7525 3.2398
-2.6695 -4.7468 3.2469
-2.6879 -4.7116 3.2342
-3.1268 -5.4023 3.7182
-2.7573 -4.6983 3.2479
-2.7751 -4.6628 3.2352
-3.3868 -5.6103 3.9026
-3.4185 -5.5851 3.8996
-3.4382 -5.5406 3.8833
-3.4661 -5.5099 3.8766
-3.4901 -5.4733 3.8659
-3.5036 -5.4207 3.8440
-3.5150 -5.3661 3.8206
2.8929 -6.2017 3.9719
2.8393 -6.1855 3.9505
2.7952 -6.1894 3.9420
2.7733 -6.2429 3.9649
2.7513 -6.2971 3.9884
2.7628 -6.4308 4.0619
2.7277 -6.4580 4.0684
2.6853 -6.4682 4.0644
1.9131 -4.6881 2.9448
1.8782 -4.6845 2.9353
1.8380 -4.6669 2.9173
1.8078 -4.6740 2.9148
1.7698 -4.6608 2.8998
1.7161 -4.6042 2.8583
1.6825 -4.6000 2.8493
2.1365 -5.9555 3.6740
2.1016 -5.9734 3.6770
2.0708 -6.0033 3.6875
1.9403 -5.7386 3.5186
1.8558 -5.6016 3.4281
1.7567 -5.4135 3.3071
1.7229 -5.4225 3.3061
1.6955 -5.4520 3.3176
1.6585 -5.4507 3.3106
1.6349 -5.4940 3.3306
1.6568 -5.6952 3.4456
1.6261 -5.7202 3.4546
1.3245 -4.7695 2.8793
1.5994 -5.9011 3.5511
1.5524 -5.8698 3.5266
1.2676 -4.9138 2.9513
1.2364 -4.9173 2.9488
1.0374 -4.2349 2.5389
1.0212 -4.2825 2.5634
0.9975 -4.2996 2.5699
0.9224 -4.0894 2.4419
0.8301 -3.7878 2.2605
0.7604 -3.5743 2.1315
0.7324 -3.5492 2.1140
0.7101 -3.5510 2.1125
0.6933 -3.5817 2.1280
0.6758 -3.6097 2.1420
0.6552 -3.6223 2.1470
0.6377 -3.6536 2.1630
0.6276 -3.7309 2.2060
0.5941 -3.6688 2.1675
0.5472 -3.5158 2.0760
0.5249 -3.5139 2.0730
0.5088 -3.5557 2.0955
0.4736 -3.4609 2.0385
0.4476 -3.4268 2.0170
0.4286 -3.4458 2.0265
0.4118 -3.4854 2.0480
0.3891 -3.4766 2.0415
0.3600 -3.4049 1.9985
0.3398 -3.4139 2.0025
0.3226 -3.4565 2.0260
0.3018 -3.4627 2.0285
0.2777 -3.4300 2.0085
0.2559 -3.4212 2.0025
0.2341 -3.4115 1.9960
0.2141 -3.4276 2.0045
0.1933 -3.4323 2.0065
0.1751 -3.4922 2.0405
0.1548 -3.5175 2.0545
0.1320 -3.4872 2.0365
0.1107 -3.4905 2.0380
0.0908 -3.5509 2.0725
0.0717 -3.6943 2.1550
0.0586 -4.4360 2.5829
0.0316 -4.4813 2.6089
0.0042 -4.6390 2.6998
-0.0241 -4.6086 2.6823
-0.0525 -4.6188 2.6883
-0.0811 -4.6331 2.6968
-0.1095 -4.6325 2.6968
-0.1391 -4.6707 2.7193
-0.1459 -4.0665 2.3709
-0.1705 -4.0569 2.3659
-0.1932 -4.0125 2.3409
-0.2179 -4.0121 2.3414
-0.2424 -4.0081 2.3399
-0.2654 -3.9832 2.3264
-0.2290 -3.1497 1.8451
-0.2478 -3.1422 1.8416
-0.2677 -3.1483 1.8461
-0.2873 -3.1492 1.8476
-0.3054 -3.1353 1.8406
-0.3254 -3.1403 1.8446
-0.3446 -3.1374 1.8441
-0.3639 -3.1361 1.8446
-0.3857 -3.1544 1.8566
-0.4283 -3.3324 1.9616
-0.4664 -3.4601 2.0375
-0.4953 -3.5121 2.0695
-0.4973 -3.3762 1.9920
-0.4949 -3.2233 1.9046
-0.5306 -3.3194 1.9626
-0.6496 -3.9081 2.3090
-0.5400 -3.1317 1.8566
-0.5555 -3.1078 1.8446
-0.5746 -3.1044 1.8446
-0.5912 -3.0880 1.8371
-0.6099 -3.0835 1.8366
-0.6255 -3.0636 1.8271
-0.6372 -3.0258 1.8071
-0.6493 -2.9922 1.7896
-0.6676 -2.9882 1.7896
-0.6854 -2.9815 1.7881
-0.6991 -2.9578 1.7766
-0.7280 -2.9981 1.8031
-0.7521 -3.0163 1.8166
-0.7755 -3.0309 1.8281
-0.8021 -3.0562 1.8461
-0.8388 -3.1181 1.8861
-0.8552 -3.1029 1.8801
-0.8730 -3.0934 1.8776
-0.8915 -3.0864 1.8766
-0.9124 -3.0875 1.8806
-0.9326 -3.0860 1.8831
-0.9543 -3.0893 1.8886
-0.9649 -3.0569 1.8726
-0.9783 -3.0345 1.8626
-1.1330 -3.4414 2.1135
-1.2842 -3.8210 2.3489
-1.0635 -3.1020 1.9151
-1.0868 -3.1077 1.9226
-1.1257 -3.1564 1.9566
-1.1477 -3.1567 1.9611
-1.1719 -3.1626 1.9691
-1.1903 -3.1530 1.9676
-1.2570 -3.2685 2.0435
-1.3848 -3.5356 2.2140
-1.4986 -3.7579 2.3574
-1.2227 -3.0129 1.8991
-1.5764 -3.8161 2.4054
-1.6001 -3.8072 2.4059
-1.6391 -3.8339 2.4289
-1.6630 -3.8246 2.4294
-1.6850 -3.8111 2.4274
-1.6885 -3.7565 2.3994
-1.7158 -3.7555 2.4054
-1.7490 -3.7669 2.4194
-1.7632 -3.7373 2.4074
-1.7903 -3.7350 2.4129
-1.8207 -3.7395 2.4229
-1.8436 -3.7283 2.4229
-2.3387 -4.6563 3.0297
-2.3861 -4.6789 3.0537
-2.5423 -4.9103 3.2137
-2.6796 -5.0985 3.3466
-2.7018 -5.0652 3.3356
-2.8739 -5.3090 3.5066
-2.9202 -5.3163 3.5231
-2.9583 -5.3081 3.5296
-3.0407 -5.3780 3.5881
-3.0693 -5.3518 3.5831
-3.1030 -5.3343 3.5841
-3.1418 -5.3256 3.5911
-3.2554 -5.4415 3.6820
-3.3867 -5.5828 3.7910
-3.4091 -5.5428 3.7780
-3.4389 -5.5151 3.7735
-3.4694 -5.4888 3.7700
-3.5030 -5.4674 3.7700
-3.5412 -5.4531 3.7750
-3.5642 -5.4153 3.7640
-3.6334 -5.4474 3.8015
2.3840 -4.9970 3.1262
2.2376 -4.8422 3.0128
2.2403 -4.9273 3.0568
2.2033 -4.9258 3.0475
2.1618 -4.9137 3.0318
2.0754 -4.7972 2.9526
2.0186 -4.7456 2.9135
1.9874 -4.7531 2.9106
1.9559 -4.7596 2.9072
1.9215 -4.7585 2.8993
1.8822 -4.7451 2.8842
1.8449 -4.7354 2.8715
1.8516 -4.8403 2.9277
1.7599 -4.6867 2.8289
1.7076 -4.6335 2.7908
1.6818 -4.6513 2.7952
1.6596 -4.6796 2.8059
1.6337 -4.6980 2.8108
1.6181 -4.7467 2.8338
2.1068 -6.3053 3.7491
1.8582 -5.6773 3.3711
1.7562 -5.4792 3.2479
1.7147 -5.4649 3.2333
1.6860 -5.4912 3.2426
1.6510 -5.4973 3.2401
1.6204 -5.5182 3.2465
1.5957 -5.5599 3.2650
1.5620 -5.5712 3.2660
1.5027 -5.4890 3.2127
1.3689 -5.1240 2.9957
1.3337 -5.1179 2.9873
1.3076 -5.1471 2.9996
1.2828 -5.1822 3.0152
1.1920 -4.9457 2.8744
1.1213 -4.7814 2.7756
0.9904 -4.3434 2.5199
0.8160 -3.6834 2.1376
0.7919 -3.6816 2.1337
0.7664 -3.6727 2.1259
0.7470 -3.6927 2.1347
0.7260 -3.7058 2.1395
0.7016 -3.7016 2.1347
0.6913 -3.7736 2.1733
0.6640 -3.7546 2.1601
0.6372 -3.7362 2.1474
0.6145 -3.7418 2.1483
0.5992 -3.7938 2.1757
0.5835 -3.8474 2.2041
0.5696 -3.9174 2.2417
0.5397 -3.8793 2.2183
0.4962 -3.7347 2.1347
0.4576 -3.6139 2.0647
0.4231 -3.5145 2.0070
0.3997 -3.5014 1.9982
0.3753 -3.4769 1.9831
0.3530 -3.4696 1.9777
0.3319 -3.4743 1.9792
0.3111 -3.4815 1.9821
0.2880 -3.4625 1.9704
0.2652 -3.4450 1.9596
0.2442 -3.4475 1.9601
0.2249 -3.4785 1.9767
0.2047 -3.4981 1.9870
0.1830 -3.4949 1.9846
0.1635 -3.5395 2.0090
0.1429 -3.5675 2.0242
0.1216 -3.5849 2.0334
0.1026 -3.6928 2.0936
0.0828 -3.8251 2.1674
0.0721 -4.6279 2.6172
0.0422 -4.4678 2.5273
0.0154 -4.6416 2.6246
-0.0131 -4.6546 2.6319
-0.0418 -4.6658 2.6382
-0.0713 -4.7265 2.6725
-0.0862 -4.0527 2.2950
-0.1100 -4.0129 2.2730
-0.1342 -3.9973 2.2647
-0.1593 -4.0112 2.2730
-0.1861 -4.0598 2.3009
-0.2128 -4.0935 2.3204
-0.2414 -4.1513 2.3537
-0.2655 -4.1280 2.3415
-0.2464 -3.4928 1.9855
-0.2497 -3.2537 1.8521
-0.2649 -3.1948 1.8198
-0.2853 -3.2026 1.8252
-0.3016 -3.1652 1.8051
-0.3199 -3.1520 1.7988
-0.3417 -3.1734 1.8120
-0.3618 -3.1765 1.8149
-0.3821 -3.1811 1.8188
-0.4044 -3.2012 1.8315
-0.4231 -3.1909 1.8271
-0.4461 -3.2133 1.8413
-0.4679 -3.2252 1.8496
-0.5124 -3.3861 1.9425
-0.6282 -3.9870 2.2852
-0.6328 -3.8617 2.2163
-0.6531 -3.8380 2.2051
-0.5612 -3.1784 1.8320
-0.5807 -3.1749 1.8320
-0.5961 -3.1498 1.8198
-0.8315 -4.2531 2.4520
-0.6390 -3.1636 1.8320
-0.6353 -3.0486 1.7684
-0.6593 -3.0694 1.7826
-0.7116 -3.2169 1.8697
-0.7053 -3.0977 1.8036
-0.7580 -3.2377 1.8868
-1.0928 -4.5443 2.6426
-1.1214 -4.5409 2.6446
-0.7719 -3.0431 1.7826
-0.7910 -3.0400 1.7836
-0.8103 -3.0376 1.7851
-0.8303 -3.0376 1.7880
-0.8379 -2.9930 1.7650
-0.8456 -2.9509 1.7435
-0.8652 -2.9506 1.7464
-0.8858 -2.9536 1.7513
-0.9057 -2.9540 1.7548
-0.9251 -2.9525 1.7572
-0.9445 -2.9510 1.7596
-0.9713 -2.9716 1.7753
-1.0882 -3.2619 1.9503
-1.1848 -3.4806 2.0838
-1.2168 -3.5038 2.1019
-1.1905 -3.3614 2.0217
-1.1735 -3.2498 1.9596
-1.1950 -3.2466 1.9621
-1.2008 -3.2017 1.9396
-1.2708 -3.3263 2.0188
-1.3237 -3.4022 2.0691
-1.3455 -3.3964 2.0706
-1.3683 -3.3929 2.0735
-1.3937 -3.3958 2.0804
-1.5818 -3.7881 2.3239
-1.6043 -3.7767 2.3229
-1.6181 -3.7452 2.3097
-1.6506 -3.7567 2.3229
-1.6882 -3.7792 2.3429
-1.7052 -3.7553 2.3346
-1.7140 -3.7138 2.3156
-1.7574 -3.7475 2.3429
-1.7868 -3.7500 2.3512
-1.8101 -3.7398 2.3517
-1.8177 -3.6973 2.3322
-1.8454 -3.6962 2.3385
-2.6390 -5.2070 3.2949
-2.6621 -5.1736 3.2841
-2.7035 -5.1757 3.2959
-2.7385 -5.1652 3.2998
-2.7441 -5.0999 3.2690
-2.7962 -5.1213 3.2934
-2.8411 -5.1284 3.3091
-2.9016 -5.1626 3.3423
-2.9393 -5.1553 3.3491
-2.9333 -5.0723 3.3071
-3.0177 -5.1452 3.3663
-3.3368 -5.6102 3.6816
-3.3815 -5.6069 3.6929
-3.3681 -5.5078 3.6415
-3.4041 -5.4908 3.6440
-3.4400 -5.4735 3.6464
-3.4801 -5.4626 3.6533
-3.5386 -5.4800 3.6792
-3.5774 -5.4662 3.6845
-3.6143 -5.4492 3.6880
-3.6554 -5.4385 3.6958
-3.6544 -5.3655 3.6616
-3.6852 -5.3401 3.6596
-3.7214 -5.3224 3.6630
-3.7490 -5.2924 3.6581
2.4706 -5.0764 3.0852
2.4424 -5.0978 3.0890
2.4010 -5.0912 3.0761
2.3460 -5.0548 3.0456
2.3036 -5.0444 3.0309
2.2545 -5.0183 3.0070
2.2052 -4.9903 2.9822
2.1801 -5.0166 2.9899
2.1358 -4.9984 2.9713
2.0396 -4.8558 2.8797
1.9910 -4.8228 2.8530
1.9885 -4.9017 2.8921
1.9196 -4.8166 2.8354
1.8620 -4.7571 2.7939
1.8060 -4.6987 2.7534
1.7805 -4.7188 2.7587
1.7549 -4.7387 2.7639
1.7324 -4.7675 2.7744
1.7046 -4.7822 2.7768
1.6706 -4.7793 2.7691
1.6498 -4.8144 2.7834
1.6255 -4.8403 2.7925
1.6065 -4.8827 2.8111
1.5579 -4.8347 2.7782
1.5277 -4.8425 2.7772
1.7039 -5.5169 3.1548
1.6690 -5.5239 3.1529
1.6523 -5.5922 3.1858
1.6062 -5.5617 3.1629
1.5704 -5.5655 3.1596
1.5341 -5.5674 3.1553
1.5242 -5.6667 3.2058
1.4907 -5.6810 3.2087
1.4543 -5.6841 3.2053
1.4162 -5.6801 3.1982
1.3948 -5.7442 3.2292
0.8935 -3.7871 2.1337
0.8637 -3.7642 2.1180
0.8377 -3.7566 2.1108
0.8126 -3.7522 2.1056
0.7781 -3.7029 2.0755
0.7565 -3.7128 2.0784
0.7460 -3.7795 2.1127
0.7367 -3.8565 2.1528
0.7047 -3.8160 2.1280
0.6729 -3.7735 2.1022
0.6448 -3.7490 2.0865
0.6421 -3.8751 2.1537
0.6227 -3.9059 2.1685
0.5920 -3.8662 2.1447
0.5510 -3.7532 2.0808
0.5185 -3.6895 2.0441
0.4980 -3.7083 2.0527
0.4726 -3.6913 2.0417
0.4478 -3.6766 2.0322
0.4302 -3.7221 2.0555
0.4094 -3.7430 2.0655
0.4091 -3.9632 2.1842
0.3964 -4.0837 2.2486
0.3220 -3.5495 1.9564
0.3004 -3.5540 1.9578
0.2921 -3.7249 2.0498
0.2710 -3.7503 2.0627
0.2385 -3.6116 1.9864
0.2206 -3.6831 2.0245
0.2017 -3.7503 2.0603
0.1776 -3.7304 2.0489
0.1546 -3.7279 2.0469
0.1322 -3.7428 2.0546
0.1101 -3.7725 2.0703
0.0873 -3.7881 2.0784
0.0658 -3.8817 2.1289
0.0499 -4.5466 2.4893
0.0227 -4.6822 2.5627
-0.0060 -4.6462 2.5432
-0.0343 -4.6249 2.5317
-0.0620 -4.5666 2.5003
-0.0800 -4.0327 2.2109
-0.1036 -3.9882 2.1871
-0.1277 -3.9734 2.1795
-0.1520 -3.9699 2.1780
-0.1770 -3.9847 2.1866
-0.2007 -3.9677 2.1780
-0.2192 -3.8629 2.1218
-0.2417 -3.8413 2.1108
-0.2611 -3.7783 2.0775
-0.2693 -3.5750 1.9678
-0.2731 -3.3472 1.8448
-0.2904 -3.3087 1.8248
-0.3086 -3.2841 1.8124
-0.3287 -3.2813 1.8119
-0.3484 -3.2757 1.8100
-0.3661 -3.2516 1.7981
-0.3868 -3.2554 1.8014
-0.4057 -3.2443 1.7967
-0.4245 -3.2339 1.7924
-0.4459 -3.2426 1.7986
-0.4654 -3.2371 1.7972
-0.4876 -3.2499 1.8057
-0.5210 -3.3337 1.8534
-0.5563 -3.4224 1.9039
-0.5706 -3.3791 1.8820
-0.5895 -3.3651 1.8763
-0.8152 -4.4991 2.5031
-0.8429 -4.4949 2.5036
-0.8388 -4.3256 2.4131
-0.8549 -4.2678 2.3840
-0.7541 -3.6451 2.0422
-0.7250 -3.3979 1.9078
-0.7472 -3.3994 1.9111
-0.7578 -3.3493 1.8858
-0.7744 -3.3274 1.8763
-0.7929 -3.3149 1.8720
-0.8116 -3.3032 1.8682
-0.8201 -3.2512 1.8420
-0.8231 -3.1806 1.8053
-0.8132 -3.0641 1.7428
-0.8306 -3.0540 1.7400
-0.8456 -3.0353 1.7323
-0.8649 -3.0326 1.7338
-0.8769 -3.0044 1.7209
-0.8963 -3.0024 1.7228
-0.9239 -3.0271 1.7400
-0.9362 -3.0012 1.7285
-0.9493 -2.9786 1.7190
-0.9838 -3.0229 1.7476
-1.0333 -3.1103 1.8010
-1.0433 -3.0773 1.7857
-1.0737 -3.1041 1.8048
-1.1279 -3.1978 1.8625
-1.1496 -3.1966 1.8658
-1.1695 -3.1903 1.8663
-1.1937 -3.1954 1.8734
-1.1974 -3.1461 1.8491
-1.2106 -3.1231 1.8401
-1.2355 -3.1304 1.8486
-1.2524 -3.1170 1.8453
-1.2699 -3.1052 1.8429
-1.2930 -3.1071 1.8486
-1.3024 -3.0764 1.8353
-1.3182 -3.0611 1.8310
-1.3232 -3.0215 1.8124
-1.6790 -3.7735 2.2634
-1.7000 -3.7583 2.2605
-1.7230 -3.7478 2.2605
-1.7433 -3.7316 2.2572
-1.7801 -3.7502 2.2748
-1.8058 -3.7448 2.2781
-1.8534 -3.7842 2.3087
-1.9243 -3.8688 2.3668
-1.9484 -3.8577 2.3673
-2.7835 -5.4320 3.3336
-2.8175 -5.4164 3.3345
-2.8352 -5.3695 3.3164
-2.7876 -5.2016 3.2239
-2.8111 -5.1690 3.2144
-2.8483 -5.1616 3.2206
-2.8807 -5.1456 3.2215
-2.9270 -5.1538 3.2377
-3.1229 -5.4215 3.4165
-3.2655 -5.5898 3.5342
-3.3969 -5.7338 3.6377
-3.4293 -5.7084 3.6348
-3.3391 -5.4814 3.5042
-3.3920 -5.4923 3.5242
-3.4084 -5.4438 3.5066
-3.4239 -5.3945 3.4885
-3.5125 -5.4600 3.5443
-3.5493 -5.4435 3.5476
-3.5841 -5.4238 3.5490
-3.6114 -5.3929 3.5433
-3.6992 -5.4514 3.5962
-3.6405 -5.2946 3.5080
-3.4646 -4.9727 3.3102
-3.5011 -4.9599 3.3159
-3.8656 -5.4062 3.6277
2.8510 -4.9547 3.0291
2.8040 -4.9428 3.0114
2.6946 -4.8185 2.9263
2.6637 -4.8326 2.9249
2.6252 -4.8325 2.9151
2.5980 -4.8532 2.9179
2.8084 -5.7467 3.3865
2.7520 -5.7199 3.3609
2.6787 -5.6559 3.3139
2.3646 -5.0719 2.9658
2.3191 -5.0549 2.9477
2.2760 -5.0424 2.9323
2.2407 -5.0466 2.9268
2.1988 -5.0351 2.9123
2.1563 -5.0216 2.8970
2.0286 -4.8047 2.7658
1.9997 -4.8187 2.7667
1.9711 -4.8334 2.7681
1.9431 -4.8495 2.7704
1.9007 -4.8292 2.7523
1.8786 -4.8606 2.7634
1.8362 -4.8389 2.7448
1.8142 -4.8708 2.7565
1.7788 -4.8669 2.7481
1.7412 -4.8560 2.7360
1.7137 -4.8733 2.7397
1.6841 -4.8846 2.7402
1.6563 -4.9015 2.7439
1.6146 -4.8763 2.7244
1.9240 -5.9355 3.3041
1.7748 -5.5911 3.1078
1.7234 -5.5469 3.0775
1.6965 -5.5811 3.0905
1.6587 -5.5795 3.0840
1.6279 -5.6015 3.0905
1.6142 -5.6846 3.1306
1.5984 -5.7635 3.1683
1.5674 -5.7895 3.1771
1.5375 -5.8204 3.1887
1.5245 -5.9180 3.2367
1.5743 -6.2716 3.4232
1.3762 -5.6267 3.0691
1.3329 -5.5980 3.0491
1.2939 -5.5862 3.0384
0.8488 -3.7631 2.0520
0.8089 -3.6912 2.0106
0.7868 -3.6987 2.0120
0.7653 -3.7095 2.0152
0.7486 -3.7446 2.0315
0.7263 -3.7526 2.0334
0.7173 -3.8327 2.0739
0.6963 -3.8509 2.0813
0.6943 -3.9798 2.1478
0.6605 -3.9281 2.1181
0.6186 -3.8211 2.0590
0.5877 -3.7767 2.0334
0.5664 -3.7934 2.0404
0.5453 -3.8117 2.0483
0.5284 -3.8632 2.0739
0.4920 -3.7681 2.0217
0.4738 -3.8114 2.0431
0.4637 -3.9277 2.1032
0.4605 -4.1196 2.2032
0.5568 -5.2853 2.8179
0.6539 -6.6065 3.5140
0.3559 -3.8163 2.0390
0.3416 -3.9242 2.0948
0.5370 -6.6774 3.5456
0.2850 -3.8142 2.0348
0.3536 -5.1795 2.7532
0.3138 -5.0517 2.6848
0.2828 -5.0535 2.6848
0.2606 -5.2346 2.7793
0.2215 -5.0734 2.6936
0.1890 -5.0366 2.6736
0.1550 -4.9351 2.6197
0.0978 -3.8342 2.0404
0.0741 -3.8232 2.0343
0.0623 -4.7866 2.5406
0.0329 -4.7798 2.5368
0.0035 -4.7711 2.5322
-0.0256 -4.7409 2.5164
-0.0457 -4.0246 2.1399
-0.0690 -3.9491 2.1004
-0.0916 -3.8795 2.0641
-0.1137 -3.8249 2.0357
-0.1367 -3.8109 2.0287
-0.1599 -3.8073 2.0273
-0.1825 -3.7895 2.0185
-0.2052 -3.7786 2.0134
-0.1901 -3.1562 1.6863
-0.2451 -3.6813 1.9636
-0.2847 -3.9092 2.0846
-0.3470 -4.3865 2.3372
-0.3762 -4.4107 2.3512
-0.3186 -3.4926 1.8677
-0.3350 -3.4395 1.8407
-0.3514 -3.3925 1.8170
-0.3716 -3.3850 1.8142
-0.3845 -3.3158 1.7788
-0.4062 -3.3239 1.7844
-0.4241 -3.3020 1.7742
-0.4391 -3.2608 1.7537
-0.4609 -3.2712 1.7607
-0.4788 -3.2534 1.7528
-0.5098 -3.3221 1.7909
-0.5305 -3.3207 1.7919
-0.5514 -3.3209 1.7937
-0.5703 -3.3087 1.7891
-0.7781 -4.3470 2.3456
-0.7951 -4.2900 2.3177
-0.8237 -4.2972 2.3242
-0.8492 -4.2877 2.3219
-0.6500 -3.1847 1.7328
-0.6732 -3.1980 1.7421
-0.6841 -3.1540 1.7207
-0.7030 -3.1481 1.7198
-0.7267 -3.1627 1.7300
-0.7471 -3.1624 1.7323
-0.7663 -3.1569 1.7319
-0.7853 -3.1505 1.7309
-0.8068 -3.1542 1.7356
-0.8218 -3.1329 1.7267
-0.8406 -3.1261 1.7258
-0.8635 -3.1345 1.7332
-0.8880 -3.1479 1.7435
-0.8908 -3.0854 1.7123
-0.9070 -3.0706 1.7072
-0.9248 -3.0615 1.7053
-0.9412 -3.0482 1.7011
-0.9623 -3.0500 1.7053
-1.0038 -3.1147 1.7444
-1.0677 -3.2438 1.8193
-1.0876 -3.2372 1.8193
-1.1094 -3.2364 1.8226
-1.1246 -3.2161 1.8151
-1.1386 -3.1933 1.8063
-1.1463 -3.1539 1.7882
-1.1681 -3.1534 1.7919
-1.1893 -3.1511 1.7947
-1.2090 -3.1446 1.7951
-1.2263 -3.1322 1.7923
-1.2445 -3.1221 1.7909
-1.2576 -3.0997 1.7826
-1.2854 -3.1132 1.7947
-1.3004 -3.0954 1.7891
-1.3106 -3.0671 1.7775
-1.3259 -3.0508 1.7728
-1.6948 -3.8324 2.2269
-1.7114 -3.8066 2.2181
-2.5964 -5.6766 3.3055
-2.8203 -6.0666 3.5410
-2.8472 -6.0275 3.5284
-2.8466 -5.9318 3.4828
-2.8787 -5.9054 3.4777
-2.7104 -5.4753 3.2357
-2.7125 -5.3961 3.1990
-2.7306 -5.3502 3.1817
-2.7173 -5.2446 3.1292
-2.8138 -5.3500 3.2018
-3.0724 -5.7549 3.4535
-2.9970 -5.5321 3.3316
-2.9617 -5.3880 3.2562
-3.2279 -5.7870 3.5075
-3.0852 -5.4529 3.3176
-3.1169 -5.4308 3.3158
-3.1519 -5.4146 3.3176
-3.1806 -5.3876 3.3130
-3.0839 -5.1516 3.1803
-3.1145 -5.1311 3.1794
-3.1445 -5.1096 3.1780
-3.1843 -5.1037 3.1864
-3.1999 -5.0594 3.1710
-3.2108 -5.0084 3.1515
-3.2395 -4.9856 3.1496
-3.2930 -5.0004 3.1715
-3.2798 -4.9146 3.1301
-3.3238 -4.9149 3.1431
-3.4501 -5.0345 3.2325
-3.4945 -5.0329 3.2450
-3.6044 -5.1235 3.3171
2.6839 -4.7129 2.7973
2.6432 -4.7083 2.7850
2.6164 -4.7283 2.7873
2.6129 -4.7912 2.8146
2.5868 -4.8134 2.8183
2.5980 -4.9063 2.8629
2.5568 -4.9009 2.8506
2.5242 -4.9117 2.8478
2.4807 -5.1333 2.9393
2.4454 -5.1404 2.9348
2.4096 -5.1464 2.9298
2.3616 -5.1255 2.9098
2.3397 -5.1610 2.9216
2.3243 -5.2119 2.9421
2.1729 -4.9537 2.7900
2.0892 -4.8434 2.7213
2.0549 -4.8455 2.7154
2.0200 -4.8457 2.7085
1.9859 -4.8473 2.7026
1.9578 -4.8635 2.7049
1.9305 -4.8821 2.7085
1.9040 -4.9030 2.7136
1.8857 -4.9453 2.7304
1.8568 -4.9610 2.7327
1.8273 -4.9748 2.7340
1.7952 -4.9817 2.7318
1.7560 -4.9683 2.7186
1.7322 -4.9983 2.7290
1.6989 -5.0013 2.7249
1.6727 -5.0251 2.7322
1.6504 -5.0615 2.7463
1.6174 -5.0656 2.7431
1.5818 -5.0610 2.7354
1.2109 -3.9585 2.1409
1.1876 -3.9693 2.1427
1.1650 -3.9825 2.1459
1.1432 -3.9990 2.1509
1.1168 -3.9991 2.1472
1.0894 -3.9955 2.1418
1.0633 -3.9961 2.1386
1.0430 -4.0189 2.1472
1.0205 -4.0339 2.1518
0.9961 -4.0418 2.1527
0.9354 -3.8981 2.0739
0.9000 -3.8543 2.0480
0.8393 -3.6965 1.9624
0.8154 -3.6964 1.9597
0.7922 -3.6987 1.9583
0.7697 -3.7043 1.9588
0.7424 -3.6863 1.9469
0.7192 -3.6882 1.9456
0.6951 -3.6846 1.9415
0.6726 -3.6897 1.9419
0.6898 -3.9209 2.0598
0.6540 -3.8557 2.0239
0.6221 -3.8087 1.9975
0.5968 -3.8001 1.9911
0.5693 -3.7764 1.9770
0.5489 -3.7992 1.9870
0.5413 -3.9163 2.0457
0.5370 -4.0696 2.1231
0.5151 -4.0976 2.1359
0.4847 -4.0564 2.1131
0.4578 -4.0416 2.1040
0.4440 -4.1471 2.1568
0.8483 -8.4260 4.3542
0.3731 -3.9412 2.0485
0.3500 -3.9559 2.0548
0.3341 -4.0591 2.1067
0.3834 -5.0412 2.6093
0.3522 -5.0391 2.6070
0.3216 -5.0473 2.6102
0.2923 -5.0777 2.6248
0.2612 -5.0802 2.6252
0.2294 -5.0693 2.6189
0.1961 -5.0146 2.5902
0.1637 -4.9658 2.5647
0.1345 -5.0139 2.5888
0.0999 -4.8250 2.4919
0.0699 -4.7989 2.4782
0.0390 -4.6211 2.3872
0.0101 -4.3568 2.2519
-0.0154 -4.0630 2.1017
-0.0400 -4.0334 2.0867
-0.0599 -3.7349 1.9342
-0.0794 -3.5840 1.8573
-0.1018 -3.5986 1.8650
-0.1259 -3.6549 1.8941
-0.1484 -3.6567 1.8955
-0.1698 -3.6335 1.8841
-0.1756 -3.3229 1.7257
-0.1902 -3.2240 1.6756
-0.2090 -3.2086 1.6683
-0.2271 -3.1842 1.6565
-0.2451 -3.1641 1.6469
-0.2709 -3.2379 1.6856
-0.3962 -4.4041 2.2852
-0.3396 -3.5348 1.8400
-0.3603 -3.5229 1.8350
-0.3838 -3.5383 1.8441
-0.5268 -4.5894 2.3862
-0.5558 -4.5931 2.3899
-0.5997 -4.7133 2.4536
-0.6274 -4.7007 2.4491
-0.6463 -4.6253 2.4122
-0.5028 -3.4469 1.8054
-0.5099 -3.3513 1.7576
-0.5303 -3.3473 1.7571
-0.5499 -3.3387 1.7544
-0.5701 -3.3335 1.7535
-0.5929 -3.3431 1.7603
-0.7853 -4.2728 2.2456
-0.6052 -3.1851 1.6820
-0.6234 -3.1744 1.6784
-0.6558 -3.2342 1.7116
-0.7052 -3.3713 1.7853
-0.6999 -3.2468 1.7225
-0.7088 -3.1929 1.6966
-0.6970 -3.0513 1.6246
-0.6778 -2.8858 1.5400
-0.7618 -3.1559 1.6843
-0.7835 -3.1607 1.6893
-0.8001 -3.1446 1.6834
-0.8241 -3.1577 1.6929
-0.8234 -3.0778 1.6533
-0.8264 -3.0151 1.6228
-0.8389 -2.9886 1.6114
-0.8072 -2.8097 1.5190
-0.8340 -2.8371 1.5363
-0.8586 -2.8558 1.5491
-1.6107 -5.2366 2.8255
-0.9778 -3.1126 1.6925
-1.8340 -5.7115 3.0914
-1.0822 -3.3026 1.8013
-1.0988 -3.2849 1.7953
-1.1086 -3.2478 1.7790
-1.1097 -3.1871 1.7498
-1.1346 -3.1953 1.7580
-1.1512 -3.1799 1.7535
-1.1799 -3.1979 1.7671
-1.2114 -3.2222 1.7844
-1.2395 -3.2364 1.7963
-1.2541 -3.2154 1.7890
-1.2804 -3.2242 1.7981
-1.2791 -3.1643 1.7694
-1.3127 -3.1910 1.7885
-1.2993 -3.1040 1.7448
-2.4286 -5.7006 3.1925
