10.5385 -8.8761 2.2925
10.3666 -8.8407 2.2673
10.1792 -8.7894 2.2385
9.9267 -8.6783 2.1953
10.8976 -9.6455 2.4195
10.2105 -9.1498 2.2814
10.2185 -9.2706 2.2956
10.2058 -9.3738 2.3055
10.1300 -9.4195 2.3014
10.0864 -9.4950 2.3047
10.0372 -9.5656 2.3068
10.1062 -9.7503 2.3359
10.0680 -9.8335 2.3409
9.5106 -9.4039 2.2264
9.4618 -9.4711 2.2285
9.4028 -9.5283 2.2283
9.3235 -9.5646 2.2234
9.2551 -9.6117 2.2212
9.1830 -9.6547 2.2181
9.1168 -9.7037 2.2165
9.0504 -9.7522 2.2149
9.0118 -9.8308 2.2200
8.8519 -9.7762 2.1958
8.6259 -9.6450 2.1550
8.5999 -9.7355 2.1633
8.9209 -10.2245 2.2582
8.4869 -9.8485 2.1650
8.6707 -10.1874 2.2268
8.7115 -10.3636 2.2532
8.5677 -10.3204 2.2327
8.5042 -10.3728 2.2327
8.3913 -10.3642 2.2199
8.3276 -10.4155 2.2199
8.3057 -10.5198 2.2311
30.0721 -44.4537 8.8322
29.7791 -44.6078 8.8263
29.5129 -44.8020 8.8288
29.2391 -44.9848 8.8292
29.0195 -45.2522 8.8466
1.2238 -3.7915 0.6869
1.1788 -3.7303 0.6751
1.1544 -3.7327 0.6743
1.1383 -3.7624 0.6782
1.1309 -3.8223 0.6872
1.1415 -3.9467 0.7073
1.1245 -3.9793 0.7116
1.1100 -4.0223 0.7178
-4.0612 -16.6118 2.8372
-4.1522 -16.5435 2.8299
-4.2711 -16.5856 2.8414
-7.5652 -22.8658 3.9821
-7.6735 -22.7246 3.9658
-7.8356 -22.7433 3.9773
-7.9979 -22.7600 3.9886
-7.9400 -22.1596 3.8927
-8.2116 -22.4821 3.9575
-7.7164 -20.7305 3.6600
-7.8512 -20.7031 3.6636
-8.3837 -21.7049 3.8482
-8.4593 -21.5070 3.8224
-8.4616 -21.1313 3.7653
-8.6932 -21.3294 3.8097
-8.7498 -21.0970 3.7780
-8.6067 -20.3973 3.6631
-8.7337 -20.3487 3.6639
-8.8813 -20.3472 3.6733
-8.9807 -20.2355 3.6631
-8.7643 -19.4253 3.5274
-8.8409 -19.2787 3.5107
-8.9424 -19.1883 3.5042
-9.0722 -19.1590 3.5089
-9.3795 -19.4978 3.5807
-9.3881 -19.2129 3.5393
-9.5040 -19.1514 3.5387
-10.9268 -21.6837 4.0143
-10.2588 -20.0507 3.7260
-10.3529 -19.9322 3.7158
-10.4672 -19.8534 3.7131
-10.4692 -19.5652 3.6715
-10.5627 -19.4520 3.6624
-10.5890 -19.2183 3.6309
-10.6961 -19.1340 3.6273
-10.9292 -19.2723 3.6658
-10.9006 -18.9500 3.6176
-11.3463 -19.4479 3.7249
-11.4162 -19.2947 3.7090
-11.3933 -18.9890 3.6641
-11.7440 -19.0401 3.7011
-20.6346 -28.1568 5.7565
-20.7093 -27.8982 5.7296
-20.9044 -27.8029 5.7363
-20.9855 -27.5571 5.7121
-20.5703 -26.6706 5.5554
-20.6959 -26.4957 5.5454
-20.0657 -25.0490 5.2953
-20.2339 -24.9438 5.2991
-20.3860 -24.8184 5.2990
-21.3285 -25.3257 5.4617
-23.9811 -27.7766 6.0496
-21.4572 -24.5470 5.3786
-21.6767 -24.4932 5.3957
-22.2415 -24.8227 5.4976
-23.4568 -25.8582 5.7571
-22.2334 -24.2092 5.4222
-21.9347 -23.5917 5.3147
-21.3661 -22.6993 5.1442
-21.5159 -22.5792 5.1467
-23.8807 -24.7551 5.6725
-22.7318 -23.2765 5.3674
-31.4585 -30.6698 7.2362
-77.9294 -31.1277 13.7906
-26.3543 4.4424 4.0761
-26.0363 4.5533 4.0315
-25.8337 4.6815 4.0048
-25.3215 4.7494 3.9304
-24.8201 4.8133 3.8578
-24.7319 4.9538 3.8488
-24.6624 5.0975 3.8428
-24.5387 5.2291 3.8286
-25.1987 5.5315 3.9358
-23.8294 5.3846 3.7289
-24.6252 5.7233 3.8576
-23.5278 5.6208 3.6925
-23.5937 5.7898 3.7082
-24.0765 6.0651 3.7891
-24.2399 6.2646 3.8205
-19.6934 5.2195 3.1153
-19.6610 5.3402 3.1153
-19.5926 5.4510 3.1098
-18.8817 5.3784 3.0033
-18.7316 5.4601 2.9849
-18.8967 5.6342 3.0163
-18.8722 5.7532 3.0180
-18.5798 5.7890 2.9773
-18.8454 5.9988 3.0251
-18.2459 5.9316 2.9357
-18.3893 6.1032 2.9644
-13.1621 4.4594 2.1359
-13.1382 4.5413 2.1365
-16.0841 5.6694 2.6133
-16.1775 5.8141 2.6340
-16.1220 5.9061 2.6308
-16.8553 6.2921 2.7551
-16.5881 6.3087 2.7182
-16.5601 6.4146 2.7199
-16.5278 6.5190 2.7211
-15.0927 6.0606 2.4938
-13.3893 5.4727 2.2217
-12.0662 5.0189 2.0105
-12.0288 5.0902 2.0095
-12.3262 5.3053 2.0636
-16.1625 7.0730 2.7023
-16.2074 7.2114 2.7170
-16.1196 7.2912 2.7098
-16.0835 7.3941 2.7113
-14.3661 6.7120 2.4322
-13.4080 6.3652 2.2788
-11.8866 5.7331 2.0300
-11.8787 5.8194 2.0346
-13.6888 6.8099 2.3464
-11.6281 5.8747 2.0044
-11.6007 5.9505 2.0059
-11.7130 6.0991 2.0313
-11.7060 6.1870 2.0366
-11.5720 6.2074 2.0201
-11.4303 6.2220 2.0023
-11.1469 6.1568 1.9600
-10.6905 5.9908 1.8875
-10.9226 6.2092 1.9343
-11.6348 6.7085 2.0653
-11.3254 6.6231 2.0183
-10.7393 6.3693 1.9225
-10.5458 6.3424 1.8953
-10.5252 6.4183 1.8985
-10.6766 6.6007 1.9325
-10.9862 6.8855 1.9950
-10.7217 6.8118 1.9552
-10.2831 6.6222 1.8839
-10.3598 6.7619 1.9051
-10.2052 6.7507 1.8846
-10.0395 6.7301 1.8621
-9.9727 6.7743 1.8574
-9.7973 6.7435 1.8329
-11.9444 8.3287 2.2363
-11.9415 8.4361 2.2453
-11.3933 8.1542 2.1531
-11.2446 8.1526 2.1347
-10.6213 7.8008 2.0271
-10.6438 7.9184 2.0405
-10.3225 7.7783 1.9889
-11.3532 8.6642 2.1940
-9.7145 7.5091 1.8911
-9.6582 7.5606 1.8891
-9.6162 7.6234 1.8900
-9.5824 7.6928 1.8926
-9.9249 8.0682 1.9685
-9.5758 7.8827 1.9099
-9.4954 7.9147 1.9036
-9.4149 7.9461 1.8974
-8.5848 7.3365 1.7420
-8.4581 7.3186 1.7257
-7.9778 6.9893 1.6382
-7.9014 7.0086 1.6315
-7.8060 7.0101 1.6209
-7.7504 7.0466 1.6183
-7.7041 7.0913 1.6177
-7.7242 7.1978 1.6309
-8.4950 8.0134 1.8003
-14.2639 13.6179 3.0166
-14.2285 13.7519 3.0268
-14.1771 13.8715 3.0338
-12.9324 12.8103 2.7871
-13.6727 13.7105 2.9625
-7.6183 7.7362 1.6762
-7.5396 7.7509 1.6695
-7.4721 7.7763 1.6651
-7.4542 7.8536 1.6717
-7.4363 7.9316 1.6784
-12.2218 13.1935 2.7540
-12.2555 13.3937 2.7798
-12.9755 14.3561 2.9607
-11.7853 13.2016 2.7105
-11.7760 13.3553 2.7270
-11.5905 13.3087 2.7032
-11.5138 13.3856 2.7044
-13.3032 15.6582 3.1415
-12.4828 14.8769 2.9712
-12.2348 14.7645 2.9341
-12.1396 14.8339 2.9330
-12.1092 14.9835 2.9477
-12.0492 15.0977 2.9555
-11.3600 14.4151 2.8098
-11.2683 14.4806 2.8091
-11.1160 14.4671 2.7934
-11.0372 14.5485 2.7959
-11.0094 14.6982 2.8115
-8.9466 12.0995 2.3099
-10.9145 14.9504 2.8336
-9.0507 12.5597 2.3754
-8.9391 12.5666 2.3664
-8.8527 12.6083 2.3641
-8.6541 12.4877 2.3319
-13.5226 19.7668 3.6562
-13.3357 19.7527 3.6385
-12.9692 19.4664 3.5717
-12.3773 18.8277 3.4418
-10.5409 16.2516 2.9637
-9.9702 15.5807 2.8316
-9.3755 14.8516 2.6903
-9.2852 14.9105 2.6906
-7.4246 12.0887 2.1797
-9.9257 16.3830 2.9311
-9.9016 16.5717 2.9537
-7.3304 12.4431 2.2183
-7.2395 12.4631 2.2139
-7.2455 12.6514 2.2390
-8.3519 14.7918 2.6032
-7.2590 13.0434 2.2917
-8.2007 14.9496 2.6129
-6.3109 11.6757 2.0414
-6.2433 11.7220 2.0427
-6.6549 12.6810 2.2000
-6.5247 12.6206 2.1828
-8.0022 15.7121 2.7008
-7.9363 15.8219 2.7111
-7.7287 15.6469 2.6734
-7.4668 15.3535 2.6162
-7.3276 15.3054 2.6005
-7.1324 15.1354 2.5646
-7.0510 15.2040 2.5688
-8.2997 18.1863 3.0574
-8.1730 18.2035 3.0519
-8.1187 18.3836 3.0734
-8.1531 18.7722 3.1294
-4.9186 11.7202 1.9564
-4.7991 11.6350 1.9376
-3.8441 9.4864 1.5821
-3.7481 9.4152 1.5667
-3.7097 9.4877 1.5748
-4.5437 11.8314 1.9509
-4.4511 11.8064 1.9424
-4.3590 11.7806 1.9338
-4.5960 12.6584 2.0708
-4.4940 12.6183 2.0599
-3.9626 11.3474 1.8519
-3.9070 11.4126 1.8585
-3.8111 11.3595 1.8462
-3.1683 9.6414 1.5690
-3.1215 9.6992 1.5751
-3.8527 12.2245 1.9726
-3.8497 12.4813 2.0095
-3.7679 12.4876 2.0068
-3.7139 12.5873 2.0189
-2.8695 9.9528 1.6007
-2.7973 9.9312 1.5945
-4.7465 17.2454 2.7392
-4.6408 17.2751 2.7394
-2.4412 9.3221 1.4915
-2.3847 9.3398 1.4920
-4.3409 17.4334 2.7512
-2.0593 8.5007 1.3569
-2.0053 8.5055 1.3557
-1.9484 8.4974 1.3526
-1.8992 8.5227 1.3547
-1.8383 8.4945 1.3486
-1.7766 8.4602 1.3415
-1.7440 8.5659 1.3562
-1.6851 8.5444 1.3512
-1.6436 8.6119 1.3601
-1.7591 9.5318 1.5000
-1.7174 9.6369 1.5145
-1.5065 8.7664 1.3794
-1.4434 8.7199 1.3708
-1.4010 8.7979 1.3815
-1.4858 9.7113 1.5199
-1.4319 9.7594 1.5259
0.0122 6.9945 1.0920
0.0553 7.0269 1.0969
0.0984 7.0225 1.0963
0.5448 21.0208 3.2143
1.1468 18.2511 2.7998
1.2555 18.1954 2.7925
1.3638 18.1439 2.7859
1.4522 17.8524 2.7430
1.5853 18.1130 2.7839
1.6902 18.0370 2.7739
2.2292 22.3239 3.4271
2.3271 21.9410 3.3710
2.4660 21.9647 3.3769
2.1096 17.7976 2.7446
2.1415 17.1642 2.6501
2.9375 22.4322 3.4557
2.1623 15.7525 2.4388
2.2877 15.9396 2.4695
2.4043 16.0514 2.4888
2.4783 15.8790 2.4647
2.9044 17.8917 2.7754
3.0073 17.8326 2.7691
3.6384 20.8001 3.2276
3.7482 20.6791 3.2125
3.8752 20.6567 3.2127
2.8782 14.8335 2.3193
2.9657 14.7981 2.3166
2.9764 14.3923 2.2568
3.0534 14.3206 2.2486
3.6634 16.6823 2.6172
3.3561 14.8453 2.3359
3.9291 16.9000 2.6582
3.3274 13.9211 2.1988
3.4097 13.8880 2.1969
4.0433 16.0453 2.5366
4.1355 15.9962 2.5329
4.5181 17.0449 2.7010
4.4426 16.3536 2.5970
4.7073 16.9176 2.6899
4.5393 15.9336 2.5398
4.6400 15.9159 2.5414
4.8674 16.3231 2.6102
5.0274 16.4896 2.6413
5.1458 16.5142 2.6501
5.3781 16.8940 2.7155
5.3823 16.5551 2.6669
5.5140 16.6128 2.6814
5.2478 15.4913 2.5078
5.3360 15.4392 2.5046
5.4329 15.4127 2.5057
5.5167 15.3493 2.5009
5.6094 15.3114 2.5003
5.6075 15.0201 2.4589
5.7108 15.0150 2.4636
5.7985 14.9686 2.4618
6.4117 16.2555 2.6769
6.4270 16.0057 2.6426
5.9228 14.4914 2.4017
5.9759 14.3689 2.3877
6.1664 14.5742 2.4275
6.2510 14.5252 2.4257
6.3194 14.4395 2.4179
6.4127 14.4113 2.4197
6.7405 14.9014 2.5076
6.8372 14.8715 2.5095
6.7982 14.5506 2.4630
6.8933 14.5211 2.4651
6.9745 14.4625 2.4624
9.4946 19.3864 3.2988
9.6160 19.3331 3.2997
10.0651 19.9286 3.4106
10.2652 20.0187 3.4365
5.0225 9.6439 1.6786
6.8644 12.9886 2.2559
6.9534 12.9637 2.2589
6.9926 12.8469 2.2462
9.8534 17.8445 3.1170
11.2028 19.9983 3.5008
11.7722 20.7158 3.6376
11.7771 20.4316 3.6007
11.8100 20.2010 3.5730
12.0925 20.3961 3.6201
12.3259 20.5020 3.6520
12.2626 20.1161 3.5971
12.2902 19.8858 3.5696
11.4033 18.1994 3.2822
11.5073 18.1174 3.2801
12.1689 18.9020 3.4340
11.2464 17.2353 3.1466
11.5068 17.4002 3.1890
11.6188 17.3375 3.1905
11.7900 17.3616 3.2080
11.9585 17.3793 3.2246
13.4251 19.2574 3.5844
13.5521 19.1876 3.5868
13.6874 19.1290 3.5914
16.6014 22.9046 4.3123
15.9665 21.7462 4.1142
16.0807 21.6224 4.1094
16.0971 21.3693 4.0803
16.3443 21.4227 4.1093
22.7797 29.4833 5.6689
16.6644 21.2953 4.1236
16.7917 21.1887 4.1229
23.6001 29.4100 5.7370
23.6411 29.0935 5.7036
24.0113 29.1815 5.7494
23.9349 28.7275 5.6891
23.9628 28.4047 5.6544
24.1431 28.2647 5.6559
24.1415 27.9141 5.6155
24.3051 27.7572 5.6139
24.4645 27.5957 5.6115
24.4663 27.2589 5.5737
24.6258 27.1002 5.5720
25.2541 27.4515 5.6754
25.4430 27.3184 5.6800
25.8339 27.3992 5.7293
25.9934 27.2316 5.7275
26.1764 27.0887 5.7311
26.4673 27.0555 5.7582
27.2033 27.4687 5.8808
27.4385 27.3683 5.8952
29.0489 28.6215 6.2016
29.2658 28.4834 6.2104
29.4030 28.2677 6.2026
28.3349 26.9080 5.9438
28.5420 26.7736 5.9526
28.9697 26.8426 6.0070
28.7838 26.3439 5.9353
29.4861 26.6562 6.0456
29.6986 26.5189 6.0556
30.7327 27.1054 6.2315
32.1986 28.0491 6.4923
32.4518 27.9213 6.5086
29.9795 25.4753 5.9840
32.1452 26.9780 6.3809
35.4455 29.3796 6.9968
29.2147 23.9132 5.7438
29.5000 23.8461 5.7709
29.9108 23.8762 5.8222
30.5692 24.0963 5.9209
30.6830 23.8821 5.9145
30.9003 23.7482 5.9281
33.3475 25.3055 6.3652
33.4017 25.0251 6.3462
31.8178 23.5347 6.0194
31.9457 23.3274 6.0165
35.0541 25.2694 6.5694
36.3057 25.8347 6.7731
35.4481 24.8981 6.5854
35.5588 24.6514 6.5778
34.1631 23.3746 6.2944
34.2854 23.1507 6.2907
34.4770 22.9733 6.2998
34.9890 23.0058 6.3671
37.7108 24.4656 6.8325
35.1380 22.4910 6.3436
35.7694 22.5871 6.4320
38.6406 24.0701 6.9190
37.0573 22.7692 6.6119
36.8936 22.3579 6.5584
39.2460 23.4557 6.9488
38.0885 22.4478 6.7205
38.2289 22.2156 6.7211
38.3637 21.9802 6.7209
35.9539 20.3072 6.2790
36.1686 20.1367 6.2947
39.6207 21.7417 6.8691
38.8950 21.0339 6.7215
37.7171 20.0987 6.4977
38.1339 20.0213 6.5479
39.1061 20.2267 6.6926
38.6084 19.6699 6.5872
38.7832 19.4601 6.5965
38.8070 19.1749 6.5805
39.1684 19.0554 6.6216
37.9078 18.1552 6.3907
37.9872 17.9075 6.3855
37.6308 17.4581 6.3079
37.8101 17.2601 6.3200
37.8386 16.9933 6.3073
37.9196 16.7509 6.3036
39.2894 17.0688 6.5126
39.2779 16.7780 6.4936
39.3209 16.5118 6.4839
39.3694 16.2487 6.4754
39.5544 16.0418 6.4894
39.9690 15.9251 6.5410
40.7943 15.9646 6.6593
42.1337 16.1915 6.8606
45.2175 17.0592 7.3431
45.3964 16.8093 7.3552
48.2894 17.5446 7.8043
48.5461 17.3014 7.8284
47.4445 16.5813 7.6350
48.4358 16.5950 7.7774
58.8498 19.7613 9.4227
59.1653 19.4642 9.4538
59.4267 19.1469 9.4765
59.5629 18.7881 9.4797
59.4881 18.3639 9.4498
19.8506 5.4641 3.1479
19.9468 5.3592 3.1578
19.9563 5.2307 3.1542
19.9593 5.1008 3.1497
20.0171 4.9849 3.1539
19.9224 4.8317 3.1345
19.5206 4.6075 3.0675
19.6198 4.5040 3.0785
19.6885 4.3928 3.0850
19.7924 4.2887 3.0969
19.9016 4.1847 3.1098
20.7959 4.2398 3.2439
20.4733 4.0433 3.1902
20.5948 3.9362 3.2052
20.9103 3.8637 3.2500
20.1179 3.5896 3.1247
20.3334 3.4995 3.1545
20.5204 3.4022 3.1799
26.8258 4.2799 4.1425
26.8790 4.1194 4.1467
26.8636 3.9485 4.1405
31.5292 4.4375 4.8495
28.2721 3.8019 4.3484
27.9811 3.5881 4.3005
28.0281 3.4194 4.3044
28.2096 3.2661 4.3289
27.9431 3.0615 4.2854
27.5267 2.8450 4.2193
27.4078 2.6629 4.1987
29.3280 2.6682 4.4879
42.8141 -6.4064 6.5812
42.8199 -6.6762 6.5883
42.7586 -6.9356 6.5853
42.8907 -7.2274 6.6122
42.9761 -7.5132 6.6322
47.2665 -8.5621 7.2989
50.9226 -9.5472 7.8696
48.0830 -9.3207 7.4414
47.9939 -9.6094 7.4366
45.9354 -9.4909 7.1279
47.5484 -10.1286 7.3865
49.2025 -10.7969 7.6524
48.8151 -11.0263 7.6027
46.5998 -10.8270 7.2694
48.2908 -11.8462 7.5540
43.7538 -11.0186 6.8579
43.4126 -11.2164 6.8153
43.4156 -11.5018 6.8266
46.5676 -12.6429 7.3318
45.1774 -12.5637 7.1259
40.4168 -11.5078 6.3895
40.2676 -11.7329 6.3773
41.4684 -12.3592 6.5783
41.5573 -12.6639 6.6044
41.4070 -12.8963 6.5931
40.7967 -12.9814 6.5089
41.4337 -13.4645 6.6230
40.8426 -13.5501 6.5421
40.8364 -13.8268 6.5545
40.8050 -14.0958 6.5632
43.8840 -15.4611 7.0708
43.7957 -15.7328 7.0720
43.6287 -15.9757 7.0608
43.6197 -16.2766 7.0753
44.4682 -16.9047 7.2289
44.5841 -17.2626 7.2646
66.8045 -26.3365 10.8941
43.3641 -17.4052 7.1009
42.5150 -17.3681 6.9798
67.0288 -27.8611 11.0121
42.2449 -17.8658 6.9709
41.3870 -17.8032 6.8479
41.1710 -18.0104 6.8304
41.0976 -18.2796 6.8367
41.5289 -18.7774 6.9270
52.5879 -24.1664 8.7869
50.3655 -23.5206 8.4409
6.5804 -3.1261 1.1359
9.2617 -4.4680 1.5893
9.2332 -4.5243 1.5892
9.1831 -4.5699 1.5854
8.9793 -4.5375 1.5557
8.7955 -4.5127 1.5292
8.6168 -4.4880 1.5035
8.4055 -4.4439 1.4721
8.3136 -4.4608 1.4610
8.2087 -4.4697 1.4477
8.2729 -4.5706 1.4635
8.4475 -4.7348 1.4987
8.4733 -4.8178 1.5083
8.8025 -5.0765 1.5709
8.6329 -5.0496 1.5467
8.6970 -5.1590 1.5634
6.2100 -3.7367 1.1302
6.2951 -3.8406 1.1494
6.2958 -3.8942 1.1537
6.2827 -3.9396 1.1557
6.2709 -3.9860 1.1579
6.2621 -4.0346 1.1607
6.2455 -4.0784 1.1622
6.2319 -4.1242 1.1643
6.2221 -4.1728 1.1672
6.2119 -4.2215 1.1700
6.2014 -4.2702 1.1729
6.1905 -4.3189 1.1757
7.3302 -5.1803 1.3916
12.7959 -9.1575 2.4138
23.5884 -17.0969 4.4400
12.7702 -9.3781 2.4303
11.5222 -8.5714 2.2060
7.2682 -5.4782 1.4106
11.2534 -8.5880 2.1750
11.1035 -8.5820 2.1565
11.8083 -9.2427 2.3020
7.0083 -5.5573 1.3868
10.8704 -8.7261 2.1423
10.8795 -8.8438 2.1546
10.9732 -9.0322 2.1836
10.5651 -8.8058 2.1142
10.3226 -8.7117 2.0769
11.1359 -9.5152 2.2494
11.0683 -9.5756 2.2476
11.1991 -9.8094 2.2857
11.1542 -9.8917 2.2888
10.1683 -9.1299 2.1009
9.9328 -9.0292 2.0642
9.8786 -9.0913 2.0645
9.8523 -9.1794 2.0707
9.7822 -9.2268 2.0678
9.8663 -9.4211 2.0973
9.7187 -9.3949 2.0784
9.6715 -9.4647 2.0807
9.7608 -9.6700 2.1121
9.9862 -10.0153 2.1731
10.0467 -10.2003 2.1994
9.9370 -10.2136 2.1892
10.1873 -10.6001 2.2576
10.0588 -10.5957 2.2437
9.8285 -10.4813 2.2072
9.7882 -10.5675 2.2126
10.0563 -10.9913 2.2872
9.8023 -10.8467 2.2452
8.7503 -9.8034 2.0215
8.6710 -9.8354 2.0171
8.5955 -9.8713 2.0137
8.5303 -9.9186 2.0126
8.5295 -10.0416 2.0267
8.3952 -10.0074 2.0097
8.3356 -10.0610 2.0101
8.6313 -10.5488 2.0955
8.6131 -10.6593 2.1067
8.1804 -10.2522 2.0177
8.0763 -10.2501 2.0077
8.0886 -10.3962 2.0263
8.1024 -10.5468 2.0455
8.0866 -10.6609 2.0578
29.9979 -43.8414 8.0681
29.8296 -44.1746 8.0954
29.7186 -44.5978 8.1393
29.3130 -44.5794 8.1031
29.0674 -44.8024 8.1110
28.9252 -45.1881 8.1484
28.7425 -45.5152 8.1753
1.1984 -3.7317 0.6269
1.1717 -3.7268 0.6250
1.1523 -3.7452 0.6267
1.1307 -3.7569 0.6275
1.1228 -3.8150 0.6356
1.1517 -4.0033 0.6641
9.1034 -32.2867 5.1074
8.9075 -32.3505 5.1088
8.6005 -32.0016 5.0457
8.6343 -32.9318 5.1829
8.1361 -31.8270 5.0023
8.0846 -32.4539 5.0923
7.8965 -32.5490 5.0995
3.7894 -52.2639 7.9591
3.4706 -52.3168 7.9637
-4.0795 -16.6191 2.6221
-4.1608 -16.5122 2.6094
-4.2918 -16.6012 2.6274
-6.8971 -23.6651 3.7621
-7.0416 -23.6205 3.7618
-7.1827 -23.5645 3.7598
-7.2707 -23.3387 3.7311
-7.3802 -23.1882 3.7144
-7.5559 -23.2459 3.7308
-7.5428 -22.7298 3.6560
-7.6812 -22.6803 3.6556
-7.7992 -22.5720 3.6459
-7.8439 -22.2579 3.6032
-7.9182 -22.0363 3.5754
-7.9911 -21.8174 3.5481
-8.1127 -21.7355 3.5428
-8.0632 -21.2047 3.4651
-8.1247 -20.9778 3.4364
-8.1514 -20.6691 3.3943
-8.3734 -20.8563 3.4331
-8.5165 -20.8421 3.4392
-8.8955 -21.3939 3.5382
-8.7563 -20.6996 3.4332
-8.8679 -20.6101 3.4274
-8.9304 -20.4094 3.4033
-8.7553 -19.6793 3.2916
-8.5546 -18.9144 3.1736
-8.8641 -19.2829 3.2438
-9.0780 -19.4333 3.2780
-9.2077 -19.3996 3.2817
-9.4776 -19.6563 3.3344
-9.3533 -19.0978 3.2502
-9.5130 -19.1259 3.2647
-11.3956 -22.5642 3.8572
-11.2281 -21.8973 3.7558
-11.8095 -22.6876 3.9023
-10.4699 -19.8152 3.4235
-10.6324 -19.8272 3.4367
-10.6443 -19.5601 3.4020
-11.1850 -20.2571 3.5337
-10.8748 -19.4125 3.3993
-11.1065 -19.5440 3.4338
-11.1527 -19.3478 3.4115
-11.3570 -19.4259 3.4373
-11.5264 -19.4409 3.4522
-12.4425 -20.6961 3.6862
-12.5755 -20.6295 3.6880
-12.7782 -20.6756 3.7100
-12.9201 -20.6211 3.7144
-12.7578 -19.5525 3.5650
-12.9719 -19.6165 3.5908
-20.8073 -27.9798 5.3075
-20.8442 -27.6731 5.2737
-20.9164 -27.4173 5.2495
-20.6382 -26.7110 5.1391
-20.7798 -26.5558 5.1337
-22.1814 -27.9918 5.4355
-22.3595 -27.8636 5.4372
-20.4421 -25.1558 4.9364
-21.1878 -25.7492 5.0772
-23.6887 -28.4319 5.6309
-21.4321 -25.0902 5.0246
-21.4570 -24.8094 4.9948
-21.7677 -24.8588 5.0313
-21.6017 -24.3659 4.9588
-21.0865 -23.4926 4.8084
-21.1285 -23.2508 4.7855
-21.1630 -23.0035 4.7614
-21.1158 -22.6713 4.7197
-24.7108 -26.2078 5.4817
-22.8505 -23.9384 5.0391
-23.0705 -23.8738 5.0551
-23.2712 -23.7876 5.0669
-31.3089 -30.8487 6.6814
-31.3041 -30.4677 6.6406
-31.6901 -30.4669 6.6825
-31.9396 -29.2327 6.5823
-31.9225 -28.8591 6.5424
-32.0783 -28.6443 6.5382
-32.2639 -28.4561 6.5403
-35.9059 -29.3914 7.0517
-36.1486 -29.2215 7.0639
-37.1633 -29.6666 7.2257
-77.8320 -31.5699 12.7366
-78.0463 -31.1005 12.7402
-78.3599 -30.6697 12.7603
-30.1589 4.4226 4.2533
-30.7000 4.6946 4.3329
-31.0346 4.9409 4.3839
-26.3354 4.3580 3.7290
-25.8532 4.4413 3.6651
-24.9215 4.4387 3.5380
-25.7831 4.7557 3.6632
-25.5024 4.8659 3.6278
-23.8754 4.7072 3.4026
-23.8839 4.8613 3.4079
-24.1435 5.0687 3.4489
-24.2600 5.2488 3.4699
-24.2864 5.4107 3.4783
-24.1668 5.5399 3.4661
-23.8855 5.6299 3.4310
-24.1451 5.8477 3.4729
-24.0299 5.9761 3.4617
-23.5888 6.0203 3.4040
-21.3331 5.5839 3.0866
-24.3952 6.5461 3.5304
-18.9268 5.2026 2.7512
-18.8774 5.3138 2.7488
-19.0595 5.4915 2.7797
-18.4345 5.4340 2.6945
-18.1220 5.4629 2.6542
-17.8307 5.4946 2.6169
-18.0083 5.6706 2.6476
-18.0005 5.7898 2.6516
-13.1804 4.3278 1.9545
-13.1724 4.4149 1.9573
-16.1290 5.5170 2.3938
-16.1612 5.6391 2.4035
-16.3400 5.8142 2.4349
-16.4921 5.9827 2.4626
-18.9774 7.0169 2.8349
-16.1626 6.0885 2.4249
-16.2396 6.2316 2.4419
-12.3522 4.8261 1.8700
-12.3104 4.8970 1.8682
-12.2122 4.9449 1.8580
-13.3181 5.4885 2.0282
-12.5918 5.2795 1.9242
-12.5090 5.3353 1.9167
-12.6623 5.4928 1.9448
-18.1453 8.0058 2.7795
-16.1185 7.2296 2.4795
-16.1495 7.3629 2.4910
-15.1407 7.0152 2.3440
-14.6125 6.8796 2.2699
-11.7788 5.6332 1.8416
-11.7422 5.7045 1.8413
-11.6990 5.7725 1.8401
-9.8455 4.9326 1.5586
-9.7789 4.9745 1.5530
-11.6462 6.0155 1.8487
-11.7582 6.1651 1.8720
-11.3040 6.0155 1.8068
-11.4490 6.1831 1.8354
-10.9114 5.9794 1.7566
-10.7629 5.9841 1.7389
-10.9468 6.1747 1.7740
-11.6007 6.6380 1.8844
-11.3841 6.6070 1.8562
-11.1471 6.5611 1.8247
-10.5972 6.3252 1.7426
-10.5548 6.3880 1.7420
-10.6944 6.5625 1.7711
-10.4672 6.5118 1.7407
-10.4966 6.6198 1.7521
-10.4257 6.6649 1.7471
-10.4794 6.7901 1.7627
-10.4864 6.8864 1.7708
-10.2502 6.8216 1.7386
-9.9248 6.6932 1.6913
-9.9106 6.7724 1.6958
-9.8631 6.8291 1.6949
-9.8510 6.9106 1.7000
-10.6262 7.5525 1.8388
-10.5499 7.5961 1.8338
-10.4327 7.6093 1.8217
-10.4742 7.7385 1.8369
-10.5930 7.9273 1.8657
-10.1938 7.7264 1.8048
-8.7770 6.7371 1.5659
-8.7972 6.8388 1.5767
-8.7442 6.8841 1.5748
-8.6995 6.9358 1.5744
-8.7230 7.0426 1.5862
-8.6781 7.0947 1.5859
-8.5520 7.0796 1.5711
-8.2443 6.9104 1.5234
-8.2176 6.9743 1.5262
-8.1792 7.0285 1.5271
-9.2244 8.0262 1.7268
-8.6674 7.6353 1.6332
-7.8821 7.0294 1.4962
-7.7977 7.0405 1.4885
-7.7427 7.0775 1.4864
-7.7129 7.1376 1.4890
-7.6827 7.1977 1.4916
-7.6923 7.2959 1.5018
-14.2856 13.7217 2.7760
-14.0087 13.6219 2.7389
-13.7859 13.5706 2.7119
-13.4098 13.3633 2.6547
-13.3373 13.4552 2.6566
-7.5696 7.7284 1.5317
-7.4869 7.7383 1.5247
-7.4605 7.8063 1.5290
-7.4301 7.8707 1.5326
-7.4384 7.9770 1.5441
-11.8811 12.9028 2.4621
-11.7718 12.9425 2.4559
-11.6934 13.0159 2.4562
-11.6245 13.1000 2.4585
-11.6105 13.2471 2.4725
-11.5329 13.3226 2.4733
-11.4567 13.3999 2.4746
-13.7351 16.2669 2.9811
-13.6451 16.3631 2.9833
-13.0566 15.8538 2.8771
-12.1755 14.9698 2.7052
-12.0796 15.0396 2.7043
-11.6493 14.6873 2.6291
-11.3165 14.4488 2.5746
-11.3852 14.7218 2.6103
-11.2886 14.7835 2.6089
-11.1542 14.7947 2.5989
-10.9893 14.7635 2.5818
-10.9067 14.8419 2.5837
-10.8817 14.9999 2.5993
-10.7728 15.0431 2.5953
-10.6654 15.0878 2.5918
-8.7945 12.6034 2.1616
-8.7193 12.6604 2.1621
-8.6837 12.7759 2.1725
-8.6195 12.8504 2.1761
-10.4140 15.7351 2.6461
-10.0757 15.4287 2.5849
-9.9787 15.4869 2.5844
-9.9717 15.6866 2.6071
-9.9058 15.7962 2.6151
-7.6020 12.2878 2.0343
-9.8051 16.0705 2.6400
-9.8844 16.4266 2.6879
-9.7607 16.4486 2.6817
-8.5079 14.5390 2.3660
-8.9292 15.4765 2.5075
-6.6066 11.6129 1.8837
-6.5439 11.6687 1.8861
-6.4899 11.7408 1.8912
-7.1689 13.1602 2.1086
-7.0576 13.1472 2.0997
-6.9680 13.1736 2.0971
-7.9403 15.2385 2.4127
-7.8516 15.2967 2.4142
-5.9774 11.8214 1.8679
-5.8668 11.7816 1.8561
-5.8263 11.8823 1.8661
-7.7540 16.0656 2.5035
-7.6557 16.1137 2.5036
-7.5093 16.0590 2.4881
-7.3949 16.0706 2.4829
-7.2031 15.9099 2.4517
-7.2696 16.3230 2.5076
-7.2206 16.4844 2.5253
-7.1056 16.4965 2.5205
-8.0806 19.0831 2.9027
-5.2659 12.6480 1.9307
-4.8392 11.8264 1.8031
-5.1715 12.8642 1.9534
-4.8311 12.2332 1.8549
-3.7316 9.6192 1.4625
-4.4390 11.6564 1.7608
-3.6199 9.6819 1.4651
-3.5124 9.5727 1.4458
-3.4033 9.4543 1.4252
-5.7367 16.2572 2.4205
-5.6462 16.3192 2.4245
-4.0607 11.9705 1.7840
-3.9787 11.9698 1.7803
-4.0875 12.5545 1.8619
-4.0137 12.5897 1.8634
-3.8748 12.4164 1.8347
-3.7427 12.2571 1.8083
-3.6737 12.3007 1.8113
-3.6173 12.3887 1.8207
-3.5968 12.6059 1.8488
-4.8732 17.4907 2.5475
-4.9840 18.3232 2.6627
-5.0317 18.9576 2.7492
-2.3957 9.2466 1.3565
-2.3498 9.3044 1.3627
-4.6176 18.7854 2.7119
-2.0150 8.4105 1.2315
-1.9804 8.4960 1.2419
-1.9053 8.4066 1.2275
-1.8384 8.3485 1.2176
-1.7815 8.3334 1.2139
-1.7197 8.2928 1.2067
-3.6467 18.1680 2.5992
-3.7311 19.1993 2.7415
-1.7000 9.6862 1.3956
-1.6372 9.6769 1.3929
-1.4410 8.8449 1.2748
-1.3778 8.7968 1.2669
1.2066 18.3242 2.5762
1.3229 18.3698 2.5836
1.4048 17.9683 2.5290
1.5475 18.3443 2.5825
1.6690 18.4331 2.5962
2.2778 22.1210 3.1123
1.9274 17.6618 2.4935
2.0286 17.5876 2.4848
2.1736 17.8796 2.5273
2.2761 17.8100 2.5195
2.3639 17.6366 2.4973
2.4286 17.3118 2.4540
2.4678 16.8409 2.3902
2.5600 16.7529 2.3801
2.6779 16.8318 2.3934
2.7881 16.8571 2.3993
2.9022 16.9021 2.4081
3.6839 20.6872 2.9428
4.6368 25.1392 3.5726
4.7942 25.1269 3.5749
4.9515 25.1135 3.5772
4.1632 20.4566 2.9238
4.3063 20.5150 2.9358
3.1448 14.5430 2.0938
4.4672 20.0546 2.8782
4.6055 20.0934 2.8876
4.7614 20.2036 2.9074
4.9478 20.4320 2.9441
4.2322 17.0225 2.4622
4.3540 17.0644 2.4720
4.4165 16.8764 2.4489
4.5210 16.8528 2.4495
5.8770 21.3785 3.1032
4.8188 17.1202 2.4961
4.9558 17.2017 2.5121
5.0688 17.1966 2.5158
4.9491 16.4188 2.4079
5.0468 16.3787 2.4066
5.1871 16.4740 2.4249
5.2122 16.2061 2.3907
5.3107 16.1710 2.3902
5.3855 16.0658 2.3797
5.2822 15.4430 2.2935
5.3837 15.4299 2.2963
5.6966 16.0097 2.3864
5.5463 15.2901 2.2856
5.5754 15.0811 2.2599
5.6532 15.0077 2.2541
5.7366 14.9505 2.2508
6.0407 15.4584 2.3316
6.1413 15.4358 2.3338
6.2396 15.4070 2.3351
6.2744 15.2237 2.3135
6.3673 15.1840 2.3133
6.4211 15.0526 2.2995
6.4131 14.7822 2.2647
6.4693 14.6646 2.2529
6.5709 14.6508 2.2568
6.8547 15.0356 2.3216
9.9246 21.4161 3.3014
9.4982 20.1710 3.1203
7.0512 14.7416 2.2962
7.1991 14.8165 2.3144
7.2961 14.7845 2.3163
7.3893 14.7448 2.3172
10.3695 20.3751 3.1987
10.5821 20.4809 3.2252
5.0554 9.6434 1.5415
5.0596 9.5090 1.5253
5.0721 9.3933 1.5120
10.0394 18.3147 2.9252
10.1213 18.1983 2.9166
11.2061 19.8602 3.1906
11.8702 20.7383 3.3417
11.8882 20.4775 3.3117
11.8644 20.1507 3.2710
12.3596 20.7000 3.3713
11.7064 19.3359 3.1629
11.9274 19.4309 3.1901
12.0642 19.3859 3.1947
12.2459 19.4112 3.2111
11.7274 18.3394 3.0474
11.8198 18.2364 3.0423
11.9325 18.1651 3.0426
11.8197 17.7552 2.9866
11.8969 17.6355 2.9788
12.1234 17.7356 3.0079
13.0793 18.8838 3.2138
13.0760 18.6337 3.1851
15.0617 21.1847 3.6321
15.1688 21.0606 3.6267
15.2189 20.8591 3.6082
16.0709 21.7450 3.7769
15.4939 20.6977 3.6129
15.6224 20.6046 3.6133
15.7618 20.5256 3.6163
15.9507 20.5099 3.6306
16.1235 20.4715 3.6411
23.2741 29.1776 5.2002
24.4326 30.2471 5.4160
24.6440 30.1288 5.4218
24.3425 29.3904 5.3163
24.6249 29.3627 5.3384
26.1775 30.8275 5.6319
24.6074 28.6212 5.2586
24.4144 28.0468 5.1810
24.4505 27.7426 5.1526
24.4441 27.3948 5.1160
24.6490 27.2854 5.1237
24.7370 27.0474 5.1075
25.1166 27.1262 5.1511
25.4573 27.1581 5.1865
26.0006 27.3986 5.2623
26.1950 27.2664 5.2677
26.7002 27.4531 5.3349
27.1316 27.5563 5.3868
27.4128 27.5022 5.4089
31.1408 30.8606 6.1025
31.3281 30.6676 6.1022
31.9494 30.8940 6.1857
29.9914 28.6471 5.7748
29.9887 28.2947 5.7409
30.3001 28.2391 5.7671
28.9773 26.6761 5.4858
34.3926 31.2728 6.4682
31.1885 28.0121 5.8366
31.4124 27.8669 5.8464
32.5178 28.4928 6.0184
32.7160 28.3135 6.0228
35.0277 29.9399 6.4122
33.8202 28.5507 6.1603
35.3522 29.4742 6.4049
35.5645 29.2831 6.4107
32.7513 26.6318 5.8769
33.0655 26.5518 5.9038
33.5057 26.5688 5.9529
33.6845 26.3755 5.9558
33.8621 26.1810 5.9587
34.0285 25.9776 5.9597
34.1888 25.7695 5.9600
34.5140 25.6840 5.9890
35.0685 25.7638 6.0572
36.6276 26.5645 6.2969
35.6703 25.5379 6.1063
35.5279 25.1076 6.0557
35.5821 24.8200 6.0390
35.2678 24.2805 5.9607
34.9770 23.7653 5.8872
35.0950 23.5321 5.8827
35.1792 23.2769 5.8728
35.3985 23.1110 5.8856
38.2912 24.6654 6.3386
35.3567 22.4698 5.8327
35.5947 22.3156 5.8491
39.6040 24.4914 6.4794
36.1297 22.0380 5.8919
36.6454 22.0451 5.9534
39.3606 23.3505 6.3687
39.9229 23.3541 6.4360
40.1710 23.1696 6.4529
38.0907 21.6596 6.0992
37.6418 20.7973 5.9866
37.7382 20.5493 5.9818
37.9378 20.3572 5.9935
38.0550 20.1203 5.9924
39.0572 20.3444 6.1296
39.1672 20.0972 6.1274
39.9431 20.1866 6.2287
39.2601 19.5400 6.1041
37.8795 18.5639 5.8730
37.9722 18.3213 5.8698
37.9434 18.0212 5.8483
38.0461 17.7847 5.8472
38.0852 17.5191 5.8366
37.5963 17.0155 5.7461
37.9299 16.8868 5.7810
25.1003 10.9924 3.8270
24.3420 10.4829 3.7027
24.4488 10.3515 3.7091
24.5127 10.2017 3.7093
24.6152 10.0676 3.7153
25.2409 10.1430 3.7995
25.6878 10.1399 3.8568
42.1404 16.3336 6.2897
41.2113 15.6833 6.1374
41.4951 15.5005 6.1653
47.9102 17.5620 7.0970
42.0271 15.1142 6.2160
47.7512 16.8420 7.0426
47.3004 16.3574 6.9615
46.2515 15.6777 6.7937
47.7476 15.8587 6.9980
54.7290 17.8048 8.0001
54.7872 17.4527 7.9928
55.2687 17.2333 8.0472
59.9743 17.8957 8.6969
19.9845 5.1730 2.8916
20.0649 5.0626 2.8986
19.9513 4.9040 2.8780
19.9868 4.7828 2.8789
20.0080 4.6583 2.8778
19.7048 4.4605 2.8307
19.9253 4.3820 2.8582
19.9538 4.2601 2.8584
20.3724 4.2189 2.9140
20.3474 4.0837 2.9068
20.4781 3.9793 2.9218
20.8389 3.9168 2.9692
21.0624 3.8252 2.9973
29.1224 5.1030 4.1266
26.7875 4.5250 3.7945
26.6349 4.3313 3.7693
26.8645 4.1996 3.7978
26.7183 4.0090 3.7738
26.7316 3.8434 3.7723
28.3425 3.8974 3.9942
27.6352 3.6276 3.8922
27.5006 3.4385 3.8704
27.5242 3.2700 3.8708
27.5240 3.0989 3.8680
27.7198 2.9488 3.8927
27.5896 2.7638 3.8721
27.3634 2.5717 3.8384
28.2549 2.4806 3.9602
28.2706 2.3073 3.9603
27.7992 2.0972 3.8930
42.8952 -6.0234 6.0297
42.5546 -6.2420 5.9873
42.4342 -6.4906 5.9759
42.3819 -6.7489 5.9743
42.5576 -7.0449 6.0049
42.9978 -7.3892 6.0729
43.0316 -7.6671 6.0841
42.8922 -7.9141 6.0712
46.8077 -8.9343 6.6299
42.7112 -8.4240 6.0598
44.4524 -9.0513 6.3132
44.3708 -9.3186 6.3096
44.4803 -9.6269 6.3333
44.6089 -9.9417 6.3601
42.9424 -9.8471 6.1322
45.8449 -10.8095 6.5537
44.0342 -10.6680 6.3054
43.9881 -10.9430 6.3083
39.5168 -10.0882 5.6792
44.1984 -11.5731 6.3580
42.7279 -11.4686 6.1576
42.5144 -11.6914 6.1372
42.4228 -11.9466 6.1344
41.4921 -11.9597 6.0110
41.4455 -12.2222 6.0150
42.7116 -12.8811 6.2090
42.9479 -13.2404 6.2548
42.6939 -13.4495 6.2298
42.1938 -13.5771 6.1692
42.1295 -13.8422 6.1721
40.6924 -13.6471 5.9748
39.9528 -13.6723 5.8790
39.6858 -13.8535 5.8523
39.2697 -13.9791 5.8037
39.1971 -14.2249 5.8058
42.8577 -15.8520 6.3590
42.6984 -16.0916 6.3499
42.3871 -16.2720 6.3185
42.3787 -16.5678 6.3322
42.1318 -16.7700 6.3107
41.6627 -16.8802 6.2562
41.3679 -17.0569 6.2276
66.1396 -28.7090 10.0138
41.7705 -18.4350 6.3538
41.6115 -18.6707 6.3469
54.1140 -24.6818 8.2664
50.1646 -23.2530 7.6872
41.5278 -19.5593 6.3878
41.4347 -19.8270 6.3920
50.4951 -24.5454 7.8052
9.2325 -4.5545 1.4593
9.2115 -4.6147 1.4604
9.1971 -4.6783 1.4626
9.1577 -4.7292 1.4610
9.1101 -4.7756 1.4581
8.9862 -4.7811 1.4433
8.8434 -4.7749 1.4255
8.8495 -4.8486 1.4311
8.8369 -4.9125 1.4338
8.8877 -5.0124 1.4467
8.8714 -5.0752 1.4491
8.7853 -5.0977 1.4403
8.3868 -4.9353 1.3813
6.3256 -3.7737 1.0539
6.3159 -3.8207 1.0561
6.3278 -3.8811 1.0619
6.3055 -3.9209 1.0622
6.2897 -3.9648 1.0635
6.2736 -4.0087 1.0649
6.2639 -4.0568 1.0674
6.2571 -4.1071 1.0704
6.2458 -4.1548 1.0727
6.2308 -4.2002 1.0745
6.2221 -4.2501 1.0774
6.2122 -4.2995 1.0801
6.1938 -4.3432 1.0815
7.4675 -5.3060 1.3024
7.4621 -5.3714 1.3070
12.4218 -9.0610 2.1625
12.3333 -9.1129 2.1569
12.3001 -9.2057 2.1609
12.2955 -9.3205 2.1699
11.3245 -8.6940 2.0105
11.2725 -8.7645 2.0108
11.2987 -8.8966 2.0249
11.2044 -8.9343 2.0179
10.8681 -8.7756 1.9678
10.9068 -8.9181 1.9844
10.8343 -8.9703 1.9813
10.8277 -9.0773 1.9901
11.5185 -9.7778 2.1256
10.4023 -8.9402 1.9329
10.0477 -8.7430 1.8779
10.0183 -8.8261 1.8824
9.9544 -8.8789 1.8806
9.9754 -9.0082 1.8948
9.9485 -9.0953 1.9001
10.3874 -9.6145 1.9935
10.3904 -9.7363 2.0053
10.3110 -9.7815 2.0016
10.0094 -9.6126 1.9552
9.6960 -9.4266 1.9062
9.7799 -9.6256 1.9337
9.6926 -9.6574 1.9282
10.3254 -10.4155 2.0644
10.2267 -10.4432 2.0575
10.0364 -10.3754 2.0324
10.0916 -10.5615 2.0563
9.8546 -10.4409 2.0216
9.7607 -10.4693 2.0156
9.6956 -10.5283 2.0154
9.6648 -10.6249 2.0224
9.6325 -10.7209 2.0293
9.2050 -10.3722 1.9539
8.7313 -9.9606 1.8678
8.6117 -9.9465 1.8554
8.4758 -9.9118 1.8395
8.3836 -9.9266 1.8328
8.2813 -9.9284 1.8239
8.2857 -10.0585 1.8381
8.2819 -10.1807 1.8509
8.3042 -10.3371 1.8697
8.2462 -10.3949 1.8709
8.1780 -10.4398 1.8700
8.1186 -10.4960 1.8711
8.0420 -10.5299 1.8683
30.7607 -44.6822 7.5426
29.7479 -43.7836 7.3608
29.4599 -43.9374 7.3561
29.2089 -44.1462 7.3609
28.9938 -44.4109 7.3752
29.1455 -45.2475 7.4837
28.2734 -44.4908 7.3305
28.6732 -61.3452 9.4067
28.2748 -61.4732 9.3996
10.2196 -30.7649 4.5213
9.9284 -30.5124 4.4755
1.1974 -3.7468 0.5789
1.1682 -3.7342 0.5760
1.1479 -3.7498 0.5773
1.1376 -3.7995 0.5834
9.3166 -31.9305 4.6381
9.0179 -32.3792 4.6865
8.5678 -31.5096 4.5539
8.5749 -32.3180 4.6622
8.1686 -31.5664 4.5474
8.2029 -32.5207 4.6765
8.0114 -32.6041 4.6813
7.8697 -32.8973 4.7161
7.6671 -32.9421 4.7157
7.4696 -33.0098 4.7187
4.2619 -52.2616 7.2918
3.9347 -52.2009 7.2799
3.5868 -51.8258 7.2246
3.2747 -51.9417 7.2378
2.3485 -52.6770 7.3325
-0.1382 -30.8308 4.3017
-0.3275 -30.8491 4.3044
-0.5168 -30.8446 4.3041
-0.7061 -30.8448 4.3047
-1.0797 -30.6962 4.2856
-1.2672 -30.6692 4.2829
-1.4532 -30.6143 4.2765
-4.2728 -37.0070 5.1905
-4.5456 -37.3567 5.2430
-4.7709 -37.2976 5.2387
-4.9954 -37.2362 5.2344
-5.8216 -38.0633 5.3639
-5.9755 -37.5280 5.2940
-6.1591 -37.2091 5.2545
-6.3755 -37.1023 5.2449
-6.5533 -36.7836 5.2057
-6.3117 -30.0597 4.2856
-6.3937 -29.5479 4.2187
-6.5848 -29.5526 4.2250
-6.7656 -29.5097 4.2248
-4.1083 -16.5246 2.3912
-4.2207 -16.5423 2.3974
-6.8217 -23.6728 3.4443
-6.9489 -23.5697 3.4355
-7.1518 -23.7201 3.4635
-7.2604 -23.5565 3.4462
-7.3738 -23.4133 3.4319
-7.5902 -23.5939 3.4648
-7.7289 -23.5290 3.4622
-7.5471 -22.5091 3.3203
-7.6992 -22.5036 3.3264
-7.8456 -22.4803 3.3299
-7.8448 -22.0426 3.2728
-7.9958 -22.0378 3.2792
-8.1446 -22.0255 3.2847
-8.4166 -22.3384 3.3384
-8.0134 -20.8799 3.1299
-8.1598 -20.8773 3.1369
-8.2210 -20.6594 3.1119
-8.8112 -21.7524 3.2828
-8.5718 -20.7941 3.1474
-8.1737 -19.4889 2.9595
-8.2865 -19.4229 2.9571
-8.4470 -19.4670 2.9715
-8.5723 -19.4284 2.9736
-9.0957 -20.2765 3.1103
-9.3190 -20.4375 3.1433
-9.2684 -20.0007 3.0855
-9.4665 -20.1038 3.1100
-9.5828 -20.0311 3.1078
-9.5752 -19.7038 3.0666
-11.1801 -22.6502 3.5305
-11.3237 -22.5909 3.5320
-10.1929 -20.0282 3.1448
-10.3133 -19.9609 3.1442
-10.9893 -20.9524 3.3091
-10.8983 -20.4728 3.2445
-11.0977 -20.5424 3.2660
-11.2083 -20.4461 3.2616
-10.9723 -19.7278 3.1588
-11.3225 -20.0663 3.2234
-11.1560 -19.4910 3.1428
-11.2768 -19.4248 3.1432
-11.4853 -19.5072 3.1676
-12.2539 -20.5231 3.3428
-12.3745 -20.4391 3.3414
-7.8512 -12.7928 2.1119
-7.8881 -12.6780 2.1011
-7.9399 -12.5883 2.0944
-12.6631 -19.8022 3.2877
-12.8297 -19.7939 3.2992
-12.9699 -19.7438 3.3040
-19.1877 -28.8186 4.8264
-19.3619 -28.6970 4.8258
-19.4001 -28.3766 4.7921
-19.6799 -28.4101 4.8179
-19.9688 -28.4525 4.8455
-19.3944 -27.2769 4.6668
-20.4647 -28.4111 4.8806
-20.5925 -28.2218 4.8698
-20.7070 -28.0160 4.8562
-20.6831 -27.6276 4.8111
-20.7062 -27.3076 4.7777
-20.9971 -27.3411 4.8058
-20.7511 -26.3453 4.6761
-20.9328 -25.9153 4.6452
-20.8587 -25.5019 4.5944
-21.0198 -25.3795 4.5955
-28.9252 -34.0626 6.2194
-21.2897 -24.7630 4.5544
-21.4243 -24.6125 4.5508
-21.6319 -24.5452 4.5627
-21.1832 -23.7410 4.4382
-21.0257 -23.2754 4.3757
-21.1975 -23.1781 4.3817
-21.3211 -23.0280 4.3780
-21.4295 -22.8621 4.3715
-21.6294 -22.7934 4.3835
-23.0749 -24.0195 4.6444
-23.0444 -23.6949 4.6092
-23.1893 -23.5531 4.6092
-23.3285 -23.4055 4.6082
-30.8087 -30.5315 6.0378
-31.4718 -30.8082 6.1300
-31.7735 -30.7240 6.1518
-31.8467 -29.3171 6.0256
-31.8977 -29.0046 6.0016
-32.0058 -28.7461 5.9887
-32.1890 -28.5557 5.9900
-32.3621 -28.3564 5.9898
-35.6253 -29.7019 6.4541
-35.8329 -29.5041 6.4588
-35.8795 -29.1750 6.4349
-36.0417 -28.9412 6.4321
-77.6813 -31.7623 11.6500
-77.8371 -31.2699 11.6444
-78.1463 -30.8386 11.6621
-30.7443 3.3580 4.3150
-30.7645 3.5514 4.3207
-31.1570 3.7906 4.3786
-30.6085 3.9145 4.3054
-31.6619 4.2470 4.4559
-27.8636 3.9112 3.9288
-30.1408 3.8814 3.8739
-30.2118 4.0791 3.8860
-30.2127 4.2682 3.8894
-26.4720 3.9054 3.4152
-26.1749 4.0258 3.3803
-27.3282 4.3750 3.5311
-25.3436 4.2169 3.2804
-25.3768 4.3826 3.2881
-25.0497 4.4845 3.2496
-24.9241 4.6201 3.2371
-24.6332 4.7226 3.2033
-24.6369 4.8802 3.2076
-23.7180 4.8496 3.0931
-23.8801 5.0356 3.1179
-24.1017 5.2370 3.1506
-24.6723 5.5198 3.2287
-23.9777 5.5190 3.1431
-23.9472 5.6670 3.1436
-23.9129 5.8140 3.1437
-19.4375 4.8522 2.5657
-19.4314 4.9775 2.5688
-19.4053 5.0979 2.5694
-19.2251 5.1769 2.5500
-19.2026 5.2974 2.5512
-18.2503 5.1553 2.4305
-18.1716 5.2537 2.4244
-18.1390 5.3651 2.4244
-18.4875 5.5918 2.4748
-13.3346 4.1223 1.7980
-13.3100 4.2044 1.7981
-13.2009 4.2591 1.7871
-19.2069 6.3279 2.5895
-19.1282 6.4324 2.5842
-19.1832 6.5821 2.5969
-18.5235 6.4831 2.5140
-16.7501 5.9779 2.2815
-16.6721 6.0656 2.2760
-16.7759 6.2202 2.2951
-16.7718 6.3360 2.2997
-16.7243 6.4356 2.2986
-16.8618 6.6076 2.3226
-16.4072 6.5459 2.2664
-16.0147 6.5034 2.2184
-16.1844 6.6883 2.2471
-16.3251 6.8641 2.2720
-12.7727 5.4626 1.7897
-12.8317 5.5812 1.8025
-12.7945 5.6586 1.8021
-15.9355 7.1654 2.2420
-15.0710 6.8881 2.1281
-16.0272 7.4444 2.2672
-16.1687 7.6311 2.2934
-15.2440 7.3093 2.1705
-11.4217 5.5626 1.6397
-11.2557 5.5675 1.6211
-9.8011 4.9229 1.4204
-9.8185 5.0073 1.4271
-9.7884 5.0679 1.4272
-11.0814 5.8240 1.6163
-11.2661 6.0096 1.6478
-11.5535 6.2544 1.6945
-11.5619 6.3509 1.7012
-10.8121 6.0256 1.5985
-10.9140 6.1705 1.6186
-10.8527 6.2240 1.6152
-10.7946 6.2790 1.6124
-11.7325 6.9214 1.7556
-10.4630 6.2592 1.5750
-10.4049 6.3114 1.5721
-10.2882 6.3273 1.5606
-10.3157 6.4318 1.5705
-10.2752 6.4945 1.5704
-9.7690 6.2587 1.5004
-9.7388 6.3239 1.5017
-10.0603 6.6209 1.5562
-9.9320 6.6241 1.5429
-9.8550 6.6605 1.5374
-10.7053 7.3314 1.6739
-9.8002 6.8001 1.5417
-9.7396 6.8470 1.5388
-9.7395 6.9366 1.5453
-10.3065 7.4363 1.6403
-10.3128 7.5375 1.6485
-8.7841 6.5030 1.4155
-8.7766 6.5812 1.4206
-8.7432 6.6403 1.4217
-8.7180 6.7060 1.4242
-8.7526 6.8185 1.4364
-8.7791 6.9261 1.4474
-9.6998 7.7497 1.6032
-8.7127 7.0489 1.4506
-9.9977 8.1908 1.6675
-9.9556 8.2589 1.6689
-10.3119 8.6619 1.7361
-12.1727 10.3533 2.0535
-10.5506 9.0856 1.7937
-9.4822 8.2673 1.6240
-9.3927 8.2912 1.6175
-7.8726 7.0355 1.3686
-7.8013 7.0584 1.3638
-7.7469 7.0961 1.3620
-7.7258 7.1644 1.3658
-7.6998 7.2287 1.3690
-14.1058 13.4081 2.4933
-13.9675 13.4407 2.4836
-13.8734 13.5151 2.4816
-13.7683 13.5784 2.4777
-13.4706 13.4488 2.4394
-7.6050 7.6856 1.4007
-7.5209 7.6945 1.3940
-7.4943 7.7620 1.3978
-7.4568 7.8186 1.3997
-7.4359 7.8931 1.4047
-13.3915 14.3924 2.5183
-13.2996 14.4706 2.5176
-11.7856 12.9821 2.2498
-11.7885 13.1465 2.2655
-11.5840 13.0789 2.2419
-11.6779 13.3492 2.2754
-11.7670 13.6188 2.3085
-11.9079 13.9541 2.3522
-11.8291 14.0353 2.3536
-11.7409 14.1053 2.3532
-12.0239 14.6270 2.4268
-11.7582 14.4840 2.3916
-11.6232 14.4986 2.3823
-11.5513 14.5914 2.3858
-11.2697 14.4166 2.3464
-11.8375 15.3361 2.4822
-11.2068 14.7045 2.3704
-9.1039 12.0981 1.9475
-9.0064 12.1227 1.9426
-10.5851 14.4323 2.2958
-10.5022 14.5050 2.2971
-10.7066 14.9800 2.3609
-10.6911 15.1541 2.3777
-10.6042 15.2283 2.3790
-10.5993 15.4223 2.3988
-8.6947 12.8185 1.9915
-8.6816 12.9697 2.0064
-10.1196 15.3209 2.3543
-10.4283 16.0011 2.4476
-10.3686 16.1249 2.4566
-10.2652 16.1815 2.4556
-10.2668 16.4057 2.4797
-10.1675 16.4709 2.4800
-10.8127 17.7592 2.6614
-10.7286 17.8669 2.6675
-9.3460 15.7828 2.3520
-9.0894 15.5665 2.3120
-9.0299 15.6847 2.3211
-7.2167 12.7147 1.8817
-6.5898 11.7777 1.7397
-9.6579 17.5138 2.5614
-7.1823 13.2150 1.9348
-8.0869 15.0999 2.1987
-8.0001 15.1606 2.2003
-7.9111 15.2173 2.2014
-7.8280 15.2859 2.2043
-9.4347 18.7061 2.6815
-9.2945 19.3039 2.7414
-7.7977 16.4521 2.3348
-7.6664 16.4349 2.3258
-7.2732 15.8451 2.2373
-7.1575 15.8487 2.2316
-7.0613 15.8950 2.2320
-6.9657 15.9426 2.2326
-6.8473 15.9376 2.2261
-5.3229 12.6014 1.7629
-5.2470 12.6374 1.7634
-6.7971 16.6599 2.3078
-4.8169 12.0157 1.6701
-4.7722 12.1189 1.6802
-4.6902 12.1285 1.6775
-4.6076 12.1357 1.6747
-4.2851 11.4981 1.5849
-4.2189 11.5363 1.5865
-3.3408 9.3114 1.2845
-3.2804 9.3223 1.2832
-4.4531 12.9092 1.7599
-3.1460 9.3036 1.2755
-3.0745 9.2794 1.2697
-4.0740 12.5548 1.7022
-4.0137 12.6325 1.7092
-3.9508 12.7043 1.7155
-3.8266 12.5764 1.6955
-3.7194 12.4989 1.6822
-3.6387 12.5081 1.6804
-3.5605 12.5254 1.6798
-4.7797 17.2170 2.2920
-4.6579 17.1867 2.2843
-2.4503 9.2634 1.2453
-2.3887 9.2601 1.2429
-2.3253 9.2486 1.2395
-4.5569 18.6122 2.4555
-2.0332 8.5275 1.1422
-1.9725 8.5040 1.1376
-1.9063 8.4540 1.1296
-1.8527 8.4578 1.1286
-1.7913 8.4244 1.1228
-1.7374 8.4245 1.1214
-3.8880 19.4639 2.5422
1.7670 17.0127 2.1955
1.8657 16.9503 2.1890
1.9878 17.0942 2.2088
2.0687 16.8867 2.1840
2.1730 16.8786 2.1846
2.2741 16.8473 2.1824
2.3859 16.8929 2.1900
2.5230 17.1047 2.2190
2.6061 16.9477 2.2009
2.6826 16.7599 2.1790
2.7844 16.7373 2.1782
3.5474 20.5424 2.6683
3.7040 20.6912 2.6902
3.8049 20.5276 2.6722
3.9993 20.8615 2.7182
4.9923 25.2023 3.2804
5.1367 25.1216 3.2740
4.2088 19.9601 2.6118
5.4332 25.0043 3.2673
4.6874 20.9526 2.7471
4.6908 20.3801 2.6767
4.8518 20.5035 2.6965
5.0270 20.6767 2.7229
5.1382 20.5829 2.7148
4.8829 19.0623 2.5207
5.0147 19.0886 2.5281
5.0659 18.8132 2.4961
5.1335 18.6087 2.4734
5.1780 18.3305 2.4411
5.2983 18.3260 2.4447
5.4217 18.3303 2.4496
5.5254 18.2682 2.4458
5.5756 18.0339 2.4194
5.2347 16.5709 2.2301
5.3662 16.6310 2.2424
5.4663 16.5921 2.2417
5.6066 16.6730 2.2570
5.8108 16.9357 2.2967
5.3072 15.1646 2.0644
5.4052 15.1458 2.0663
5.4760 15.0517 2.0582
5.9611 16.0773 2.2009
5.6403 14.9305 2.0510
5.7385 14.9132 2.0534
6.0197 15.3617 2.1191
6.1234 15.3485 2.1223
6.2682 15.4356 2.1394
6.4121 15.5160 2.1557
6.7268 15.9986 2.2273
6.8533 16.0236 2.2364
6.9447 15.9658 2.2343
6.4959 14.6871 2.0636
6.9521 15.4613 2.1764
7.1232 15.5853 2.1996
8.7022 18.7346 2.6444
9.4760 20.0768 2.8394
7.1403 14.8916 2.1211
7.2011 14.7850 2.1123
9.7220 19.6527 2.8047
9.8785 19.6645 2.8148
10.3236 20.2398 2.9051
4.9164 9.4960 1.3856
4.9557 9.4296 1.3805
5.0218 9.4148 1.3828
5.0663 9.3594 1.3792
7.6723 13.9670 2.0479
10.2297 18.3539 2.6892
10.3607 18.3236 2.6940
12.3647 21.5574 3.1743
11.3467 19.5045 2.8854
11.4676 19.4371 2.8858
11.6351 19.4472 2.8977
11.9127 19.6367 2.9363
11.9961 19.5032 2.9274
11.9937 19.2340 2.8983
12.0913 19.1281 2.8935
12.1384 18.9442 2.8771
11.7848 18.1463 2.7682
12.4577 18.9272 2.8973
11.9487 17.9137 2.7550
12.0295 17.7973 2.7485
12.1211 17.6978 2.7446
14.8124 21.3446 3.3169
14.7873 21.0317 3.2827
14.9477 20.9850 3.2896
15.1000 20.9259 3.2947
15.2351 20.8425 3.2962
15.4318 20.8419 3.3109
15.4362 20.5825 3.2849
15.5328 20.4487 3.2788
15.7039 20.4128 3.2883
16.0874 20.6478 3.3415
23.1605 29.3518 4.7581
23.3600 29.2339 4.7621
23.4984 29.0399 4.7540
23.7371 28.9696 4.7661
23.7244 28.5944 4.7285
24.0596 28.6389 4.7600
24.3988 28.6835 4.7919
24.4597 28.4002 4.7698
24.3785 27.9572 4.7208
24.4636 27.7096 4.7043
24.5538 27.4703 4.6893
24.7233 27.3206 4.6895
24.9541 27.2378 4.7015
25.1066 27.0689 4.6988
25.5649 27.2261 4.7528
26.9284 28.3278 4.9723
26.7061 27.7510 4.9002
26.7880 27.4963 4.8843
27.6327 28.0173 5.0060
27.7838 27.8269 5.0024
32.2944 31.9497 5.7737
32.6573 31.9146 5.8033
33.7098 32.5412 5.9538
33.8859 32.3118 5.9498
34.5544 32.1490 5.9971
31.0132 28.1524 5.3261
31.2289 28.0007 5.3335
36.7575 32.5528 6.2375
36.4413 31.8760 6.1511
33.9407 28.9613 5.6713
34.1208 28.7551 5.6718
33.9618 28.2666 5.6168
34.2005 28.1118 5.6275
37.2956 30.2742 6.1032
33.1255 26.5539 5.3981
33.3158 26.3723 5.4026
33.7787 26.4032 5.4509
34.1608 26.3658 5.4862
34.1128 25.9963 5.4530
37.9415 28.5476 6.0331
35.0815 26.0602 5.5556
36.8321 27.0114 5.8049
36.9345 26.7395 5.7951
35.6836 25.5018 5.5755
37.4617 26.4267 5.8263
37.5987 26.1793 5.8226
37.7349 25.9318 5.8189
37.1059 25.1658 5.6987
38.7816 25.9563 5.9301
34.7147 22.9273 5.2904
35.3485 23.0356 5.3648
34.9968 22.5017 5.2909
35.0839 22.2547 5.2834
35.5671 22.2563 5.3351
35.9740 22.2049 5.3754
36.3918 22.1556 5.4171
36.5739 21.9599 5.4240
37.8911 22.4357 5.5977
37.9964 22.1842 5.5931
38.1834 21.9804 5.6006
38.2304 21.6962 5.5879
38.1697 21.3532 5.5600
38.5372 21.2494 5.5942
37.9712 20.6345 5.4942
38.1120 20.4091 5.4963
40.2749 21.2503 5.7875
40.3024 20.9497 5.7729
39.9401 20.4511 5.7034
40.6096 20.4804 5.7804
40.6803 20.2039 5.7728
38.1716 18.6669 5.4027
38.2032 18.3928 5.3912
38.0956 18.0539 5.3605
37.7507 17.6077 5.2970
37.9600 17.4225 5.3112
38.0589 17.1859 5.3102
38.2507 16.9908 5.3222
38.5933 16.8602 5.3552
25.1062 10.6036 3.4777
24.9179 10.3444 3.4431
40.1219 16.0810 5.4953
40.2992 15.8658 5.5061
40.3968 15.6186 5.5062
41.5678 15.7788 5.6516
41.5597 15.4847 5.6376
41.6791 15.2386 5.6410
41.9567 15.0489 5.6658
47.1602 16.5892 6.3503
46.1637 15.9211 6.2037
45.5801 15.4075 6.1130
45.9224 15.2099 6.1460
45.8875 14.8865 6.1291
46.6001 14.8023 6.2116
54.8727 17.0598 7.2941
56.3878 17.1521 7.4805
56.7943 16.8957 7.5203
57.4857 16.7181 7.5978
27.7343 7.1515 3.6530
29.0969 7.3127 3.8249
28.9504 7.0873 3.8001
20.0257 4.7728 2.6355
20.0149 4.6407 2.6303
20.0353 4.5160 2.6293
20.0646 4.3934 2.6296
20.3774 4.3311 2.6665
20.5192 4.2298 2.6815
20.4261 4.0801 2.6662
20.4245 3.9496 2.6628
25.9573 4.8541 3.3708
26.2522 4.7427 3.4049
26.9161 4.6923 3.4863
27.1626 4.5637 3.5143
27.0608 4.3760 3.4978
26.8812 4.1779 3.4714
27.1144 4.0439 3.4980
28.0865 4.0128 3.6190
27.4834 3.7548 3.5390
27.6427 3.6039 3.5564
27.4752 3.4108 3.5323
27.4622 3.2382 3.5281
27.9922 3.1266 3.5930
27.5166 2.9027 3.5302
28.3000 2.8098 3.6275
28.4244 2.6461 3.6411
28.2790 2.4577 3.6207
27.9870 2.2594 3.5819
27.8875 2.0792 3.5676
27.8562 1.9051 3.5620
29.6943 1.8477 3.7933
28.3212 1.5880 3.6182
28.2462 1.4100 3.6075
43.1430 -5.0189 5.5218
43.3517 -5.3130 5.5523
43.3075 -5.5775 5.5510
42.7043 -6.0334 5.4832
42.6046 -6.2862 5.4753
42.5005 -6.5375 5.4670
42.2304 -6.7615 5.4377
42.0795 -7.0024 5.4237
41.5235 -7.1719 5.3581
41.5031 -7.4310 5.3612
41.4899 -7.6916 5.3655
42.8070 -8.2079 5.5411
42.7412 -8.4675 5.5392
42.7079 -8.7335 5.5417
42.8709 -9.0413 5.5698
42.7798 -9.2966 5.5653
42.7364 -9.5621 5.5671
42.8220 -9.8576 5.5859
43.2184 -10.5089 5.6536
39.1478 -9.7738 5.1321
42.6169 -11.4774 5.6104
42.6060 -11.7553 5.6183
41.5029 -11.7254 5.4830
43.4449 -12.5625 5.7480
44.0948 -13.0442 5.8439
43.2970 -13.0976 5.7492
42.4395 -13.1229 5.6466
41.8067 -13.2088 5.5735
41.6229 -13.4322 5.5600
41.2363 -13.5873 5.5196
37.1293 -12.4870 4.9835
37.0023 -12.6975 4.9768
38.9154 -13.6216 5.2434
38.7647 -13.8364 5.2345
38.6977 -14.0808 5.2370
39.5194 -14.6550 5.3595
39.3536 -14.8688 5.3493
42.0236 -16.1731 5.7232
41.7905 -16.3785 5.7051
41.5123 -16.5640 5.6811
41.3695 -16.8020 5.6755
41.2555 -17.0513 5.6742
43.4986 -18.2918 5.9960
41.7273 -17.8490 5.7682
41.5196 -18.0623 5.7548
41.7764 -18.4797 5.8056
41.7074 -18.7560 5.8119
41.4842 -18.9625 5.7970
41.3949 -19.2296 5.8009
53.8770 -25.4316 7.5612
52.3638 -25.1113 7.3712
48.2938 -23.8927 6.8415
48.0142 -24.1222 6.8228
47.7646 -24.3650 6.8086
47.5622 -24.6307 6.8012
48.3322 -25.4068 6.9328
9.2187 -4.9172 1.3547
9.2817 -5.0242 1.3681
9.1994 -5.0529 1.3607
9.3173 -5.1924 1.3823
8.9562 -5.0634 1.3345
8.7391 -5.0116 1.3074
8.5367 -4.9653 1.2824
8.3762 -4.9410 1.2633
6.3042 -3.7707 0.9628
6.2945 -3.8175 0.9648
6.2693 -3.8551 0.9645
6.2792 -3.9144 0.9695
6.2751 -3.9656 0.9725
6.2649 -4.0132 0.9747
6.2518 -4.0591 0.9764
6.2425 -4.1077 0.9788
6.2296 -4.1542 0.9807
6.2163 -4.2007 0.9826
6.2076 -4.2505 0.9852
6.1928 -4.2965 0.9870
6.1712 -4.3378 0.9877
7.0180 -4.9979 1.1232
6.9164 -4.9897 1.1122
7.0090 -5.1222 1.1315
6.7566 -5.0016 1.0967
6.6710 -5.0019 1.0881
6.6852 -5.0769 1.0952
11.0738 -8.5185 1.7997
11.0659 -8.6210 1.8069
11.0276 -8.7005 1.8093
11.0747 -8.8485 1.8256
10.9871 -8.8894 1.8202
10.9047 -8.9340 1.8157
11.0482 -9.1655 1.8482
11.2006 -9.4086 1.8827
10.4324 -8.8729 1.7649
10.1890 -8.7742 1.7334
11.3329 -9.8812 1.9342
10.2003 -9.0043 1.7536
10.2566 -9.1666 1.7725
11.5058 -10.4110 1.9950
11.3115 -10.3621 1.9727
10.2658 -9.5205 1.8035
10.2412 -9.6152 1.8094
10.1029 -9.6027 1.7956
9.9709 -9.5943 1.7828
9.9217 -9.6650 1.7846
9.8637 -9.7271 1.7848
9.7582 -9.7418 1.7767
9.7296 -9.8333 1.7823
9.7363 -9.9616 1.7945
10.1518 -10.5151 1.8812
10.0871 -10.5772 1.8812
10.0166 -10.6331 1.8802
9.7741 -10.5041 1.8474
9.1328 -9.9364 1.7397
9.0870 -10.0091 1.7426
9.1175 -10.1674 1.7600
8.9925 -10.1525 1.7481
8.6955 -9.9394 1.7031
8.5624 -9.9093 1.6892
8.5304 -9.9956 1.6948
8.4593 -10.0364 1.6930
8.3925 -10.0820 1.6920
8.3506 -10.1578 1.6960
8.3169 -10.2443 1.7017
8.3327 -10.3934 1.7176
8.0612 -10.1822 1.6754
7.9870 -10.2166 1.6730
31.3241 -40.5855 6.5114
30.0466 -43.1532 6.6776
29.8127 -43.3826 6.6846
29.6184 -43.6714 6.7009
29.5093 -44.0906 6.7371
29.2841 -44.3404 6.7476
29.0473 -44.5741 6.7559
28.6520 -44.5629 6.7276
28.1713 -44.4119 6.6788
28.6297 -45.7530 6.8530
28.5118 -46.8331 6.9613
28.8833 -60.9486 8.5552
28.4971 -61.0995 8.5517
28.0952 -61.2155 8.5437
27.7705 -61.5007 8.5595
10.5701 -30.6469 4.1302
10.3926 -30.7432 4.1344
10.2646 -30.9900 4.1589
9.9273 -30.5994 4.0987
1.1906 -3.7442 0.5311
1.1632 -3.7372 0.5292
1.1402 -3.7443 0.5292
1.1209 -3.7636 0.5309
1.1058 -3.7980 0.5345
9.1376 -32.1523 4.2574
8.9197 -32.1341 4.2477
8.5504 -31.5534 4.1647
8.3708 -31.6590 4.1717
8.1080 -31.4446 4.1371
7.9200 -31.5139 4.1397
7.7180 -31.5272 4.1352
7.8618 -32.9898 4.3191
7.6637 -33.0568 4.3216
7.3637 -32.6725 4.2658
12.7101 -63.6446 8.2337
4.1901 -51.9164 6.6147
3.8567 -51.7433 6.5896
3.5443 -51.8412 6.5991
3.2343 -51.9936 6.6158
2.9207 -52.1106 6.6282
