2.0304 3.0025 0.6719
2.0427 2.9811 0.6700
2.0570 2.9628 0.6688
2.0706 2.9437 0.6674
2.0909 2.9341 0.6681
2.1083 2.9204 0.6679
2.1215 2.9011 0.6665
2.1334 2.8801 0.6648
2.1475 2.8622 0.6637
2.1823 2.8717 0.6688
2.1981 2.8560 0.6682
2.2095 2.8347 0.6665
2.2275 2.8218 0.6667
2.2460 2.8096 0.6670
2.2700 2.8042 0.6689
2.2959 2.8009 0.6714
2.3256 2.8019 0.6748
2.3548 2.8019 0.6781
2.3873 2.8054 0.6823
2.4186 2.8071 0.6861
2.4520 2.8108 0.6904
2.4894 2.8185 0.6958
2.5684 2.8722 0.7121
2.6494 2.9265 0.7288
14.7442 16.0774 3.8760
14.8452 15.9895 3.8767
14.9390 15.8938 3.8756
14.8475 15.6036 3.8274
14.6703 15.2292 3.7582
14.7532 15.1283 3.7556
14.8367 15.0284 3.7533
15.9055 15.9143 3.9967
14.9794 14.8050 3.7433
15.1898 14.8298 3.7728
15.8398 15.2757 3.9096
17.1819 16.3675 4.2134
17.1522 16.1397 4.1820
17.2480 16.0314 4.1813
16.4602 15.1121 3.9695
16.4622 14.9288 3.9480
16.4376 14.7237 3.9206
16.5047 14.6023 3.9152
16.6504 14.5500 3.9284
16.7669 14.4714 3.9348
17.0046 14.4954 3.9693
17.2748 14.5436 4.0111
6.8765 5.7187 1.6088
6.7851 5.5726 1.5800
6.7496 5.4744 1.5642
6.7354 5.3947 1.5535
6.7583 5.3454 1.5512
6.7793 5.2947 1.5486
6.7969 5.2416 1.5453
6.8250 5.1968 1.5445
6.8489 5.1489 1.5427
6.8875 5.1121 1.5443
6.9108 5.0639 1.5426
6.9736 5.0445 1.5495
7.0622 5.0428 1.5620
7.1461 5.0368 1.5734
7.1995 5.0086 1.5783
7.2561 4.9822 1.5838
20.4548 13.8578 4.3855
22.1188 14.7879 4.7201
22.1943 14.6421 4.7170
22.2466 14.4815 4.7092
22.3010 14.3229 4.7021
22.3802 14.1805 4.7004
34.6532 21.6592 7.2317
34.7318 21.4131 7.2206
34.8878 21.2150 7.2258
35.0545 21.0228 7.2335
35.3057 20.8800 7.2586
35.5234 20.7155 7.2770
6.2409 3.5895 1.3016
6.2422 3.5395 1.2974
6.1813 3.4550 1.2808
6.1851 3.4075 1.2773
6.1393 3.3333 1.2640
6.1318 3.2807 1.2584
6.1205 3.2265 1.2522
6.1192 3.1780 1.2480
6.0772 3.1090 1.2359
6.0777 3.0624 1.2322
6.0902 3.0220 1.2310
6.1077 2.9841 1.2308
6.1259 2.9466 1.2308
6.1546 2.9140 1.2329
6.1830 2.8812 1.2350
6.2113 2.8481 1.2371
6.2862 2.8358 1.2482
6.3025 2.7968 1.2480
6.3837 2.7861 1.2603
6.4712 2.7771 1.2738
6.5508 2.7638 1.2858
6.6550 2.7597 1.3025
12.2984 5.0105 2.3726
12.3856 4.9577 2.3834
12.5515 4.9349 2.4091
12.6578 4.8872 2.4235
38.2930 14.5129 7.2468
38.2069 14.2128 7.2140
38.2249 13.9531 7.2012
38.3868 13.7459 7.2156
11.7808 3.7364 2.2104
17.1978 5.3379 3.2053
11.6665 3.5432 2.1811
11.5861 3.4412 2.1624
11.5294 3.3476 2.1482
11.4957 3.2614 2.1383
11.4861 3.1827 2.1329
11.4959 3.1096 2.1312
11.4671 3.0264 2.1225
11.4950 2.9585 2.1242
11.5025 2.8853 2.1223
11.5209 2.8149 2.1225
11.5677 2.7512 2.1279
11.6870 2.7039 2.1464
11.8465 2.6643 2.1723
11.9185 2.6037 2.1823
12.0180 2.5483 2.1974
17.4554 3.4774 3.1686
17.5141 3.3775 3.1753
17.5287 3.2689 3.1743
17.4350 3.1409 3.1540
17.4840 3.0390 3.1594
16.3010 -4.7220 3.0228
16.4294 -4.8686 3.0518
16.4746 -4.9922 3.0657
14.5387 -4.5030 2.7144
14.5493 -4.6043 2.7215
14.7485 -4.7671 2.7637
14.7386 -4.8640 2.7673
14.2007 -4.7833 2.6729
14.2074 -4.8828 2.6797
14.3129 -5.0175 2.7050
14.1659 -5.0638 2.6833
14.0171 -5.1078 2.6613
13.8285 -5.1354 2.6318
13.7995 -5.2212 2.6323
14.0264 -5.4056 2.6813
13.9609 -5.4790 2.6752
13.8959 -5.5521 2.6693
13.8716 -5.6414 2.6712
13.4500 -5.5663 2.5975
13.4337 -5.6564 2.6009
14.0189 -6.0043 2.7198
14.0684 -6.1280 2.7364
14.1242 -6.2557 2.7545
14.5031 -6.5303 2.8351
13.8198 -6.3248 2.7106
11.0921 -5.1587 2.1882
14.1089 -6.6678 2.7822
13.7250 -6.5897 2.7153
14.0296 -6.8421 2.7829
13.3828 -6.6286 2.6641
13.5961 -6.8385 2.7142
13.5109 -6.8999 2.7057
13.6467 -7.0751 2.7411
13.6440 -7.1803 2.7493
13.4789 -7.1994 2.7251
13.3964 -7.2613 2.7175
13.3939 -7.3666 2.7260
9.7581 -5.4448 2.0018
9.7082 -5.4953 1.9985
9.6837 -5.5602 2.0004
9.6715 -5.6324 2.0049
9.6673 -5.7097 2.0111
9.6668 -5.7896 2.0182
9.7076 -5.8954 2.0340
9.5405 -5.8742 2.0070
9.4241 -5.8826 1.9903
9.3403 -5.9103 1.9804
9.2666 -5.9436 1.9726
9.9879 -6.4932 2.1319
10.2406 -6.7472 2.1936
10.0582 -6.7159 2.1638
10.0967 -6.8316 2.1808
9.9717 -6.8366 2.1631
9.8301 -6.8285 2.1417
9.8323 -6.9199 2.1513
10.1393 -7.2294 2.2269
9.8920 -7.1450 2.1829
9.8249 -7.1887 2.1778
9.9641 -7.3849 2.2181
9.7572 -7.3247 2.1825
9.9755 -7.5847 2.2408
9.9092 -7.6307 2.2365
9.8490 -7.6811 2.2335
25.5072 -20.1483 5.7591
25.1939 -20.1531 5.7164
17.3339 -14.0405 3.9627
17.2535 -14.1516 3.9641
17.1156 -14.2150 3.9525
17.2602 -14.5150 4.0059
17.1371 -14.5919 3.9981
7.3554 -6.3403 1.7440
7.2511 -6.3283 1.7287
7.0704 -6.2474 1.6954
7.0745 -6.3288 1.7055
7.0874 -6.4190 1.7178
7.0914 -6.5023 1.7282
13.4542 -12.4911 3.2673
13.3350 -12.5336 3.2570
13.2293 -12.5880 3.2501
13.0149 -12.5371 3.2166
12.0593 -11.7599 3.0005
11.9981 -11.8448 3.0032
11.9510 -11.9439 3.0097
11.8955 -12.0352 3.0142
13.4450 -13.7712 3.4236
11.6040 -12.0321 2.9779
11.5660 -12.1409 2.9871
11.5581 -12.2827 3.0043
10.5184 -11.3160 2.7548
10.4561 -11.3883 2.7567
6.2111 -6.8479 1.6619
6.1249 -6.8367 1.6503
6.0620 -6.8506 1.6447
5.9550 -6.8135 1.6274
5.8076 -6.7276 1.5989
5.6269 -6.5997 1.5611
5.6320 -6.6884 1.5736
5.5858 -6.7167 1.5722
5.0220 -6.1146 1.4272
4.9906 -6.1529 1.4289
4.9306 -6.1557 1.4227
4.9221 -6.2230 1.4310
4.8711 -6.2367 1.4274
4.7203 -6.1207 1.3949
4.6427 -6.0970 1.3833
4.6442 -6.1773 1.3948
4.8204 -6.4944 1.4581
4.6909 -6.4015 1.4314
4.5817 -6.3336 1.4104
4.6932 -6.5724 1.4560
4.6908 -6.6550 1.4676
4.6021 -6.6149 1.4529
4.3446 -6.3272 1.3854
4.0384 -5.9591 1.3014
3.9393 -5.8904 1.2817
3.9297 -5.9548 1.2902
3.9049 -5.9969 1.2940
4.0101 -6.2420 1.3403
4.1915 -6.6134 1.4126
4.0955 -6.5505 1.3942
4.1230 -6.6853 1.4170
4.2016 -6.9074 1.4576
3.8522 -6.4212 1.3524
3.8263 -6.4676 1.3571
3.8639 -6.6237 1.3842
3.9591 -6.8838 1.4322
3.9518 -6.9697 1.4447
3.6582 -6.5450 1.3542
3.6883 -6.6950 1.3798
3.7458 -6.8993 1.4163
3.8079 -7.1175 1.4553
3.6673 -6.9569 1.4187
3.6844 -7.0947 1.4416
3.5942 -7.0259 1.4236
3.5187 -6.9836 1.4109
3.4521 -6.9575 1.4015
9.2742 -18.9882 3.7558
3.3533 -6.9718 1.3961
3.4136 -7.2103 1.4386
8.8824 -19.0682 3.7388
8.7812 -19.1573 3.7455
8.6801 -19.2476 3.7526
8.5814 -19.3446 3.7611
8.4897 -19.4592 3.7731
8.3853 -19.5462 3.7799
8.2858 -19.6463 3.7893
8.1787 -19.7295 3.7955
8.0475 -19.7547 3.7908
7.9056 -19.7525 3.7811
7.7673 -19.7576 3.7729
7.6250 -19.7507 3.7627
5.2244 -13.7825 2.6297
5.1065 -13.7248 2.6129
5.0093 -13.7207 2.6063
7.1042 -19.8373 3.7450
4.8154 -13.7096 2.5930
4.7691 -13.8487 2.6134
4.6336 -13.7284 2.5857
3.9687 -12.0006 2.2599
3.8868 -11.9994 2.2552
3.8081 -12.0070 2.2523
3.7373 -12.0396 2.2540
3.6831 -12.1273 2.2660
4.1140 -13.8519 2.5787
4.0231 -13.8570 2.5751
3.8760 -13.6626 2.5350
3.8010 -13.7184 2.5409
3.7008 -13.6825 2.5302
3.6027 -13.6516 2.5204
3.4958 -13.5838 2.5041
3.6974 -14.7418 2.7106
3.4599 -14.1624 2.6015
3.3602 -14.1297 2.5917
3.3203 -14.3525 2.6283
3.1628 -14.0642 2.5727
2.7628 -12.6468 2.3137
2.6702 -12.5932 2.3010
2.6010 -12.6489 2.3081
2.5607 -12.8520 2.3418
2.4630 -12.7698 2.3242
2.3586 -12.6453 2.2993
3.5812 -19.8804 3.5917
2.2418 -12.8955 2.3390
2.3337 -13.9308 2.5215
2.1674 -13.4432 2.4320
1.9539 -12.6105 2.2812
2.1138 -14.2198 2.5657
1.7987 -12.6315 2.2809
1.7264 -12.6804 2.2876
1.6521 -12.7181 2.2925
1.5495 -12.5296 2.2573
1.6378 -13.9473 2.5071
1.4357 -12.9088 2.3213
1.3670 -13.0173 2.3390
1.2923 -13.0784 2.3484
1.2084 -13.0468 2.3414
1.7123 -19.8183 3.5374
1.5898 -19.8176 3.5355
1.4675 -19.8172 3.5337
1.3452 -19.8160 3.5320
1.2229 -19.8131 3.5301
1.1006 -19.8074 3.5278
0.9778 -19.7882 3.5233
0.8512 -19.6758 3.5025
0.5006 -13.4745 2.4086
0.4181 -13.4832 2.4096
0.3559 -14.3145 2.5557
0.2695 -14.3942 2.5694
0.1768 -14.0500 2.5085
0.0890 -13.7977 2.4639
0.0027 -6.2974 1.1427
-0.0357 -6.2579 1.1358
-0.0743 -6.2763 1.1391
-0.1129 -6.2797 1.1397
-0.1510 -6.2611 1.1366
-0.1755 -5.8033 1.0561
-0.2077 -5.7096 1.0398
-0.2529 -5.9444 1.0815
-0.3125 -6.4159 1.1649
-0.3305 -6.0274 1.0967
-0.3715 -6.0901 1.1082
-0.4078 -6.0720 1.1054
-0.4373 -5.9643 1.0868
-0.4741 -5.9635 1.0872
-0.5104 -5.9575 1.0867
-0.5524 -6.0131 1.0971
-0.5859 -5.9753 1.0910
-0.5982 -5.7385 1.0497
-0.6567 -5.9451 1.0870
-0.7055 -6.0466 1.1057
-0.7637 -6.2142 1.1363
-0.8149 -6.3100 1.1541
-0.8541 -6.3088 1.1548
-0.8945 -6.3152 1.1569
-0.9268 -6.2667 1.1493
-0.9624 -6.2424 1.1460
-0.9795 -6.1041 1.1224
-1.0109 -6.0621 1.1160
-3.4024 -19.6420 3.5448
-3.5250 -19.6324 3.5469
-3.6481 -19.6249 3.5495
-3.7714 -19.6176 3.5523
-3.8948 -19.6095 3.5551
-4.0168 -19.5940 3.5566
-3.1312 -14.8130 2.7003
-3.2424 -14.8868 2.7172
-3.2345 -14.4246 2.6374
-3.3068 -14.3344 2.6247
-3.3446 -14.1031 2.5865
-3.3917 -13.9206 2.5572
-3.4431 -13.7638 2.5326
-3.5209 -13.7167 2.5279
-3.5909 -13.6415 2.5182
-3.4831 -12.9099 2.3888
-3.5497 -12.8427 2.3805
-3.6136 -12.7686 2.3709
-3.6911 -12.7433 2.3704
-3.8322 -12.9329 2.4094
-3.9121 -12.9110 2.4098
-3.9731 -12.8285 2.3990
-4.0788 -12.8893 2.4148
-4.1824 -12.9399 2.4289
-4.2740 -12.9514 2.4358
-4.3842 -13.0164 2.4528
-4.3616 -12.6912 2.3973
-4.4733 -12.7609 2.4153
-4.5316 -12.6776 2.4049
-4.5897 -12.5958 2.3949
-4.6563 -12.5388 2.3895
-4.7234 -12.4842 2.3846
-4.9306 -12.7941 2.4486
-5.0569 -12.8855 2.4717
-5.2396 -13.1140 2.5210
-5.7030 -14.0230 2.7000
-5.1391 -12.4181 2.4007
-5.1831 -12.3101 2.3862
-5.2570 -12.2744 2.3855
-5.3279 -12.2320 2.3836
-5.4208 -12.2396 2.3914
-5.5552 -12.3381 2.4169
-5.6222 -12.2850 2.4132
-5.6680 -12.1869 2.4009
-5.7242 -12.1127 2.3933
-5.7954 -12.0711 2.3921
-5.8668 -12.0300 2.3910
-5.9378 -11.9885 2.3900
-5.8533 -11.6378 2.3281
-6.0532 -11.8533 2.3778
-6.1997 -11.9585 2.4061
-6.2739 -11.9220 2.4065
-6.3348 -11.8606 2.4020
-6.3840 -11.7783 2.3933
-6.4457 -11.7199 2.3895
-6.6159 -11.8564 2.4250
-6.6890 -11.8165 2.4252
-6.7810 -11.8093 2.4321
-6.8519 -11.7650 2.4316
-6.9159 -11.7091 2.4289
-5.0001 -8.3488 1.7476
-5.0481 -8.3129 1.7466
-5.1120 -8.3028 1.7509
-7.6852 -12.3111 2.5898
-9.3971 -14.8492 3.1288
-5.6356 -8.7867 1.8722
-5.5756 -8.5769 1.8354
-5.5225 -8.3822 1.8016
-5.4119 -8.1057 1.7502
-5.3357 -7.8864 1.7107
-5.3834 -7.8527 1.7105
-4.8285 -6.9517 1.5243
-4.8671 -6.9163 1.5231
-5.7015 -7.9968 1.7634
-5.7204 -7.9202 1.7544
-5.8660 -8.0176 1.7833
-5.6553 -7.6310 1.7065
-5.7103 -7.6072 1.7089
-5.5661 -7.3212 1.6534
-5.6205 -7.2994 1.6562
-5.7737 -7.4037 1.6872
-6.0198 -7.6224 1.7443
-5.3024 -6.6302 1.5289
-5.3510 -6.6075 1.5311
-6.0442 -7.3702 1.7124
-5.6412 -6.7936 1.5889
-5.6771 -6.7521 1.5873
-5.6782 -6.6699 1.5764
-5.7126 -6.6274 1.5747
-5.7247 -6.5596 1.5670
-5.9474 -6.7310 1.6156
-5.9446 -6.6452 1.6040
-5.8438 -6.4524 1.5668
-5.9851 -6.5275 1.5934
-5.9801 -6.4423 1.5818
-6.0614 -6.4500 1.5925
-6.1362 -6.4497 1.6015
-6.2754 -6.5155 1.6269
-6.5373 -6.7046 1.6829
-7.1900 -7.2839 1.8363
-6.3030 -6.3077 1.6041
-6.3395 -6.2668 1.6036
-6.4638 -6.3117 1.6248
-6.6733 -6.4367 1.6666
-6.5123 -6.2047 1.6179
-6.5179 -6.1343 1.6100
-6.5280 -6.0687 1.6035
-6.5586 -6.0225 1.6019
-6.7406 -6.1138 1.6364
-6.9490 -6.2254 1.6768
-7.0800 -6.2649 1.6987
-7.0330 -6.1468 1.6787
-7.0333 -6.0714 1.6701
-7.7600 -6.6159 1.8297
-7.9496 -6.6937 1.8640
-7.2203 -6.0045 1.6876
-7.2555 -5.9588 1.6872
-7.2805 -5.9049 1.6846
-8.4574 -6.7736 1.9421
-18.5904 -14.7008 4.2082
-18.9232 -14.7761 4.2625
-19.1008 -14.7271 4.2819
-9.1062 -6.9332 2.0495
-19.4903 -14.6496 4.3282
-19.6732 -14.5989 4.3487
-19.8148 -14.5164 4.3602
-20.0025 -14.4661 4.3817
-20.0107 -14.2858 4.3643
-20.9787 -14.7834 4.5541
-21.7175 -15.1053 4.6932
-20.3929 -13.9992 4.3905
-20.5167 -13.8998 4.3987
-19.3678 -12.9488 4.1372
-19.4682 -12.8439 4.1418
-19.5714 -12.7403 4.1470
-17.1740 -11.0304 3.6288
-19.6315 -12.4391 4.1272
-19.3383 -12.0877 4.0505
-19.2092 -11.8437 4.0085
-17.3259 -10.5365 3.6054
-19.4840 -11.6856 4.0354
-10.7189 -6.3403 2.2271
-10.6521 -6.2129 2.2056
-10.4151 -5.9893 2.1497
-10.4199 -5.9074 2.1433
-10.4354 -5.8318 2.1391
-10.4537 -5.7581 2.1357
-10.7398 -5.8301 2.1860
-10.8301 -5.7934 2.1969
-11.0075 -5.8016 2.2252
-10.7693 -5.5920 2.1709
-10.7850 -5.5164 2.1672
-10.6937 -5.3872 2.1426
-10.7089 -5.3127 2.1391
-10.7236 -5.2383 2.1357
-10.7218 -5.1561 2.1291
-10.7426 -5.0852 2.1270
-10.8022 -5.0325 2.1326
-10.8740 -4.9850 2.1405
-11.2411 -5.0700 2.2056
-11.5790 -5.1371 2.2647
-11.6482 -5.0825 2.2720
-11.7145 -5.0260 2.2788
-11.6888 -4.9303 2.2680
-11.6961 -4.8491 2.2637
-12.0585 -4.9128 2.3270
-12.0866 -4.8380 2.3267
-12.0950 -4.7555 2.3227
-11.9457 -4.6124 2.2890
-12.0843 -4.5809 2.3098
-12.1685 -4.5276 2.3204
-17.3371 -6.3293 3.2844
-26.7365 -9.5745 5.0359
-56.8391 -15.7442 10.4225
-56.9071 -15.3877 10.4174
-57.2375 -15.1008 10.4606
-17.8326 1.9860 2.9752
-17.5946 2.0689 2.9380
-17.5454 2.1723 2.9320
-17.4818 2.2735 2.9238
-17.3570 2.3656 2.9055
-17.3207 2.4690 2.9019
-17.2984 2.5743 2.9008
-17.3593 2.6923 2.9136
-17.4175 2.8108 2.9260
-17.6432 2.9584 2.9665
-17.6403 3.0694 2.9691
-58.4899 14.2958 9.9046
-57.3635 14.3941 9.7292
-57.3009 14.7527 9.7337
-56.5099 14.9194 9.6152
-7.9435 2.1506 1.3829
-7.9473 2.2040 1.3858
-7.9241 2.2501 1.3842
-7.7832 2.2618 1.3625
-7.6481 2.2735 1.3418
-7.5990 2.3098 1.3358
-7.5706 2.3520 1.3334
-7.5052 2.3823 1.3246
-7.4510 2.4155 1.3178
-7.4154 2.4544 1.3143
-7.3900 2.4963 1.3125
-7.3736 2.5413 1.3123
-7.3672 2.5898 1.3139
-7.3586 2.6376 1.3152
-7.3228 2.6756 1.3118
-7.3284 2.7287 1.3157
-7.3346 2.7824 1.3198
-7.3340 2.8337 1.3227
-7.3495 2.8917 1.3285
-7.3554 2.9463 1.3327
-7.3765 3.0074 1.3397
-7.4117 3.0749 1.3492
-7.4163 3.1303 1.3534
-7.4922 3.2166 1.3704
-28.4782 12.4297 5.1277
-28.3797 12.5946 5.1238
-28.1778 12.7125 5.1014
-28.0660 12.8700 5.0955
-28.0116 13.0536 5.1000
-28.9522 13.7087 5.2852
-29.0605 13.9790 5.3203
-29.0247 14.1817 5.3295
-25.3738 12.5915 4.6774
-24.5919 12.3921 4.5482
-24.3863 12.4767 4.5244
-24.1989 12.5688 4.5040
-24.0698 12.6899 4.4945
-23.7261 12.6954 4.4451
-23.5932 12.8110 4.4349
-23.4657 12.9289 4.4259
-23.4841 13.1275 4.4443
-23.4126 13.2767 4.4461
-23.3101 13.4083 4.4422
-23.2360 13.5561 4.4438
-23.6619 13.9999 4.5409
-8.0862 4.8525 1.5797
-7.9526 4.8390 1.5598
-7.9110 4.8804 1.5576
-7.8072 4.8828 1.5433
-7.7713 4.9270 1.5422
-7.7094 4.9543 1.5361
-7.6573 4.9875 1.5319
-7.6134 5.0257 1.5293
-7.5881 5.0761 1.5304
-7.5667 5.1292 1.5323
-7.5814 5.2074 1.5416
-7.5574 5.2595 1.5432
-7.5492 5.3228 1.5480
-7.5606 5.4006 1.5569
-7.3898 5.3474 1.5291
-7.4714 5.4766 1.5524
-7.5066 5.5735 1.5665
-7.4281 5.5863 1.5574
-7.3380 5.5893 1.5459
-32.4283 25.0106 6.7474
-32.0836 25.0603 6.7077
-32.0748 25.3718 6.7381
-32.0263 25.6545 6.7608
-31.8867 25.8654 6.7647
-32.2246 26.4689 6.8701
-32.0684 26.6719 6.8716
-31.9479 26.9050 6.8810
-31.3565 26.7375 6.7893
-30.9379 26.7101 6.7342
-30.9183 27.0261 6.7658
-25.5825 22.6407 5.6342
-25.1741 22.5562 5.5750
-23.7751 21.5673 5.2961
-23.6067 21.6800 5.2881
-22.9593 21.3467 5.1731
-22.8502 21.5082 5.1781
-22.1255 21.0836 5.0440
-2.8325 2.7341 0.6791
-2.7514 2.6887 0.6644
-2.6879 2.6590 0.6536
-2.6464 2.6503 0.6477
-2.6259 2.6623 0.6468
-2.6061 2.6748 0.6460
-2.5759 2.6766 0.6427
-2.5431 2.6751 0.6389
-2.4909 2.6526 0.6303
-2.4765 2.6700 0.6308
-2.4528 2.6771 0.6290
-2.4303 2.6856 0.6275
-2.4125 2.6989 0.6272
-2.3985 2.7167 0.6278
-2.3552 2.7008 0.6212
-2.3366 2.7130 0.6207
-2.3302 2.7393 0.6233
-2.3114 2.7513 0.6228
-2.2977 2.7692 0.6236
-2.2568 2.7543 0.6175
-2.2368 2.7642 0.6167
-2.2241 2.7833 0.6178
-2.2107 2.8015 0.6188
-2.1995 2.8228 0.6204
-2.1900 2.8464 0.6225
-2.1772 2.8661 0.6238
-2.1715 2.8952 0.6270
-2.1578 2.9140 0.6282
-2.1509 2.9423 0.6312
-2.1409 2.9667 0.6335
-2.1341 2.9958 0.6367
-2.1282 3.0266 0.6403
-2.1231 3.0591 0.6442
-2.1216 3.0973 0.6492
-2.1219 3.1388 0.6549
-2.1256 3.1863 0.6617
-2.1359 3.2446 0.6706
-2.1369 3.2899 0.6769
-3.2935 5.1379 1.0342
-3.2603 5.1555 1.0337
-3.1455 5.0423 1.0080
-3.0788 5.0035 0.9969
-2.9866 4.9211 0.9774
-2.9280 4.8919 0.9684
-2.8853 4.8886 0.9643
-2.8434 4.8857 0.9605
-2.7986 4.8774 0.9556
-2.7667 4.8910 0.9550
-2.7371 4.9088 0.9551
-2.7055 4.9229 0.9546
-2.6752 4.9394 0.9546
-2.6430 4.9522 0.9540
-2.6186 4.9797 0.9561
-2.5898 4.9992 0.9567
-2.5635 5.0238 0.9584
-2.5407 5.0553 0.9613
-2.5170 5.0858 0.9640
-2.4962 5.1224 0.9679
-2.4711 5.1510 0.9703
-2.4453 5.1786 0.9726
-2.4218 5.2114 0.9758
-2.4284 5.3105 0.9910
-2.4282 5.3973 1.0040
-2.4314 5.4942 1.0187
-6.7541 15.5129 2.8075
-6.6701 15.5804 2.8122
-6.4595 15.3482 2.7636
-6.4671 15.6337 2.8073
-8.2257 20.2347 3.6146
-6.6770 16.7190 2.9851
-6.1598 15.7032 2.7990
-6.0946 15.8218 2.8133
-7.2431 19.1521 3.3905
-7.1347 19.2212 3.3949
-7.0271 19.2934 3.3999
-6.8704 19.2292 3.3813
-6.6847 19.0783 3.3478
-6.4037 18.6420 3.2651
-6.1994 18.4144 3.2190
-6.0560 18.3603 3.2032
-5.9299 18.3558 3.1960
-5.6597 17.8941 3.1105
-5.4865 17.7239 3.0754
-5.3796 17.7639 3.0765
-5.2691 17.7918 3.0757
-5.1469 17.7792 3.0681
-5.0246 17.7640 3.0602
-4.9181 17.8040 3.0618
-4.7798 17.7262 3.0435
-4.7349 17.9985 3.0847
-4.6173 17.9995 3.0801
-5.0248 20.0992 3.4301
-5.6802 23.3272 3.9697
-5.5390 23.3703 3.9711
-5.3640 23.2673 3.9481
-5.2320 23.3479 3.9562
-5.0790 23.3352 3.9488
-4.9314 23.3457 3.9454
-4.7839 23.3552 3.9420
-4.6372 23.3676 3.9392
-4.4584 23.2115 3.9085
-4.3144 23.2307 3.9072
-4.1701 23.2470 3.9056
-2.6538 15.3377 2.5855
-2.5465 15.2748 2.5724
-2.4194 15.0826 2.5379
-2.2500 14.5988 2.4553
-2.1566 14.5869 2.4511
-2.0709 14.6273 2.4556
-2.0101 14.8539 2.4910
-1.9336 14.9794 2.5098
-1.8557 15.1056 2.5287
-1.7487 14.9942 2.5085
-1.6504 14.9478 2.4991
-1.5298 14.6808 2.4535
-1.4505 14.7999 2.4716
-1.3583 14.7938 2.4692
-1.2673 14.7999 2.4689
-1.1597 14.5959 2.4341
-1.0850 14.8065 2.4676
-0.9537 14.2112 2.3687
-0.8590 14.0947 2.3487
-0.7783 14.2041 2.3658
-0.7401 15.2130 2.5307
-0.6552 15.4164 2.5633
-0.5636 15.5020 2.5768
-0.4685 15.5091 2.5774
-0.5620 23.3202 3.8579
-0.4186 23.3094 3.8556
-0.2841 24.0249 3.9726
-0.1374 24.1555 3.9938
0.0108 24.1579 3.9941
0.1591 24.1603 3.9946
0.3072 24.1490 3.9930
0.4552 24.1388 3.9917
0.6035 24.1424 3.9928
0.7524 24.1639 3.9970
0.9013 24.1766 3.9999
1.0498 24.1736 4.0004
1.1983 24.1716 4.0012
1.3470 24.1707 4.0023
1.4955 24.1659 4.0030
1.6452 24.1770 4.0064
1.7947 24.1821 4.0090
1.9439 24.1815 4.0107
2.0948 24.1986 4.0156
2.2455 24.2099 4.0196
2.3941 24.1966 4.0198
2.5440 24.1962 4.0222
2.6934 24.1890 4.0237
2.8427 24.1798 4.0250
2.9977 24.2158 4.0339
3.1487 24.2155 4.0370
3.2977 24.1997 4.0376
3.4486 24.1966 4.0405
3.6005 24.1984 4.0444
3.7532 24.2031 4.0489
3.9060 24.2069 4.0535
4.0586 24.2068 4.0575
4.2138 24.2204 4.0640
4.3681 24.2261 4.0693
4.5217 24.2260 4.0738
4.6744 24.2191 4.0774
4.8289 24.2200 4.0824
4.9864 24.2334 4.0897
5.1417 24.2342 4.0950
5.2926 24.2128 4.0968
3.6174 16.0734 2.7347
3.5542 15.3519 2.6170
3.5976 15.1167 2.5811
3.6964 15.1193 2.5853
3.7901 15.1001 2.5860
3.8664 15.0135 2.5753
3.9270 14.8703 2.5551
4.0328 14.9002 2.5643
4.1956 15.1329 2.6082
4.3498 15.3233 2.6450
4.5068 15.5133 2.6821
4.4875 15.1004 2.6162
4.6911 15.4380 2.6788
7.5378 24.2726 4.2004
7.7036 24.2795 4.2096
1.7360 5.3538 0.9564
1.7707 5.3486 0.9574
1.7937 5.3087 0.9524
1.7973 5.2136 0.9378
1.8158 5.1643 0.9312
1.8342 5.1159 0.9247
1.8517 5.0666 0.9181
1.8748 5.0338 0.9144
1.9004 5.0084 0.9119
1.9233 4.9764 0.9084
1.9476 4.9489 0.9056
1.9776 4.9359 0.9055
2.0049 4.9164 0.9042
2.0320 4.8967 0.9029
2.0643 4.8896 0.9038
2.0993 4.8886 0.9059
2.1411 4.9028 0.9108
2.1707 4.8887 0.9106
2.2019 4.8779 0.9111
2.2367 4.8751 0.9131
2.2774 4.8845 0.9173
2.3175 4.8919 0.9211
2.3791 4.9434 0.9331
2.4380 4.9872 0.9438
2.4830 5.0013 0.9491
2.5630 5.0838 0.9671
2.6498 5.1769 0.9872
7.6209 14.6714 2.7440
7.7222 14.6462 2.7481
9.9096 18.5193 3.4770
10.0405 18.4903 3.4830
11.0004 19.9651 3.7707
10.8459 19.4019 3.6777
11.0397 19.4672 3.7026
11.1161 19.3247 3.6885
11.1161 19.0532 3.6500
9.5953 16.2167 3.1228
2.0320 3.3845 0.6809
1.9773 3.2481 0.6571
1.9614 3.1779 0.6460
1.9490 3.1148 0.6361
1.9649 3.0978 0.6351
1.9785 3.0773 0.6335
1.9898 3.0536 0.6312
1.9998 3.0281 0.6287
2.0145 3.0100 0.6275
2.0225 2.9821 0.6245
2.0396 2.9680 0.6241
2.0516 2.9465 0.6223
2.0736 2.9395 0.6235
2.0904 2.9251 0.6232
2.1072 2.9107 0.6228
2.1186 2.8889 0.6211
2.1392 2.8798 0.6219
2.1622 2.8738 0.6233
2.1816 2.8628 0.6238
2.1937 2.8423 0.6223
2.2111 2.8288 0.6223
2.2339 2.8221 0.6238
2.2518 2.8092 0.6240
2.2820 2.8114 0.6274
2.3049 2.8042 0.6288
2.3328 2.8029 0.6316
2.3620 2.8029 0.6346
2.4054 2.8191 0.6413
2.4517 2.8379 0.6486
2.4859 2.8421 0.6528
2.5779 2.9111 0.6712
2.6089 2.9099 0.6744
15.4962 17.0819 3.8147
15.1441 16.4894 3.7040
15.2027 16.3506 3.6938
15.2892 16.2426 3.6906
15.1326 15.8799 3.6298
15.1578 15.7122 3.6128
15.2967 15.6626 3.6228
15.4383 15.6148 3.6335
16.5502 16.5354 3.8690
15.5937 15.3895 3.6254
15.4991 15.1096 3.5822
15.6342 15.0553 3.5919
15.7256 14.9584 3.5917
15.8099 14.8549 3.5901
16.0844 14.9281 3.6312
16.2659 14.9118 3.6513
16.5612 14.9966 3.6964
16.9875 15.1940 3.7700
17.0235 15.0392 3.7576
17.0381 14.8670 3.7407
17.1903 14.8150 3.7540
17.3418 14.7610 3.7671
17.4146 14.6397 3.7634
6.7931 5.6388 1.4811
6.7154 5.5050 1.4573
6.7168 5.4377 1.4505
6.7208 5.3729 1.4443
6.7366 5.3181 1.4408
6.7667 5.2749 1.4403
6.7974 5.2320 1.4400
6.8090 5.1747 1.4358
6.8216 5.1186 1.4319
6.8767 5.0943 1.4367
6.9317 5.0695 1.4416
6.9683 5.0309 1.4427
7.0440 5.0201 1.4518
7.1013 4.9955 1.4571
7.1967 4.9969 1.4701
7.3160 5.0135 1.4877
20.3703 13.7793 4.0654
22.1353 14.7762 4.3967
21.8333 14.3817 4.3197
22.0155 14.3088 4.3382
22.1793 14.2224 4.3531
22.2511 14.0766 4.3502
22.2107 13.8609 4.3257
34.7500 21.3920 6.7234
34.8891 21.1835 6.7250
27.2049 16.2899 5.2320
34.9059 20.6117 6.6792
26.8996 15.6619 5.1365
6.2159 3.5670 1.2086
6.1844 3.4987 1.1986
6.1765 3.4443 1.1931
6.1387 3.3740 1.1821
6.1081 3.3086 1.1725
6.0987 3.2552 1.1670
6.0897 3.2026 1.1617
6.0891 3.1547 1.1580
6.0960 3.1110 1.1557
6.0912 3.0616 1.1514
6.0878 3.0132 1.1473
6.0990 2.9723 1.1460
6.1234 2.9378 1.1472
6.1484 2.9036 1.1484
6.1805 2.8725 1.1510
6.2249 2.8468 1.1559
6.2755 2.8235 1.1619
6.3090 2.7922 1.1648
6.3730 2.7739 1.1732
6.4743 2.7709 1.1882
6.5303 2.7476 1.1952
6.6100 2.7335 1.2064
12.2295 4.9709 2.1979
12.3340 4.9254 2.2110
12.4806 4.8954 2.2315
37.9100 14.6050 6.6938
38.0718 14.3997 6.7066
38.2150 14.1864 6.7163
38.3069 13.9537 6.7173
38.4485 13.7386 6.7271
38.6484 13.5433 6.7474
17.3512 5.4880 3.0171
17.2102 5.3274 2.9872
11.5749 3.5049 2.0164
11.4921 3.4029 1.9986
11.4682 3.3195 1.9910
11.4266 3.2316 1.9805
11.4187 3.1538 1.9758
11.4331 3.0824 1.9750
11.4346 3.0076 1.9720
11.4423 2.9347 1.9703
11.4553 2.8633 1.9695
11.5503 2.8118 1.9826
11.6413 2.7584 1.9950
11.7080 2.6985 2.0034
11.8957 2.6650 2.0322
11.9697 2.6046 2.0419
17.3517 3.5538 2.9374
17.3006 3.4329 2.9252
17.2729 3.3174 2.9171
17.2978 3.2122 2.9180
17.3366 3.1095 2.9212
17.4545 3.0202 2.9377
17.5759 2.9303 2.9548
17.5955 2.8227 2.9552
16.0253 -4.8695 2.7795
14.4947 -4.5019 2.5219
16.1035 -5.1099 2.8034
14.2408 -4.7121 2.4928
14.1471 -4.7776 2.4816
14.0344 -4.8357 2.4672
14.0315 -4.9312 2.4719
14.0233 -5.0252 2.4758
14.0432 -5.1298 2.4847
14.4517 -5.3797 2.5617
13.8850 -5.2661 2.4682
13.9123 -5.3743 2.4787
13.8736 -5.4574 2.4778
13.8316 -5.5391 2.4763
13.9810 -5.6987 2.5088
13.9075 -5.7685 2.5020
13.8955 -5.8637 2.5062
14.2428 -6.1135 2.5747
14.2014 -6.1992 2.5740
14.1595 -6.2846 2.5734
14.1036 -6.3636 2.5703
15.9561 -7.3175 2.9115
14.2105 -6.6229 2.6039
14.0144 -6.6365 2.5758
13.9672 -6.7194 2.5747
13.9727 -6.8279 2.5832
10.8392 -5.3797 2.0175
10.7743 -5.4301 2.0117
13.3307 -6.8210 2.4886
13.2124 -6.8631 2.4745
13.4284 -7.0803 2.5224
13.3517 -7.1449 2.5163
13.3327 -7.2403 2.5210
13.4022 -7.3848 2.5423
13.1981 -7.3783 2.5125
13.4831 -7.6466 2.5748
10.1459 -5.8369 1.9526
9.7937 -5.7146 1.8926
9.8085 -5.8042 1.9022
9.7837 -5.8709 1.9043
9.8032 -5.9647 1.9149
9.7471 -6.0128 1.9112
10.1852 -6.3696 2.0031
9.7392 -6.1742 1.9242
9.6821 -6.2216 1.9204
9.8372 -6.4069 1.9583
9.8356 -6.4921 1.9657
10.0728 -6.7378 2.0204
10.0575 -6.8172 2.0256
10.0114 -6.8760 2.0248
10.0395 -6.9863 2.0389
9.9157 -6.9909 2.0227
9.7811 -6.9862 2.0042
11.9424 -8.6408 2.4503
9.9756 -7.3116 2.0613
9.9401 -7.3798 2.0633
9.7566 -7.3368 2.0350
26.3386 -20.0577 5.4611
26.1807 -20.1924 5.4540
25.7810 -20.1376 5.3967
25.4209 -20.1087 5.3473
25.1969 -20.1841 5.3263
17.4153 -14.1275 3.7100
9.0009 -7.3945 1.9434
8.9599 -7.4534 1.9444
17.0006 -14.3179 3.6775
7.4088 -6.3187 1.6301
7.3101 -6.3125 1.6171
7.2526 -6.3410 1.6131
7.1279 -6.3095 1.5943
7.0876 -6.3518 1.5940
7.0960 -6.4383 1.6045
7.0774 -6.5010 1.6092
7.0511 -6.5571 1.6123
7.0409 -6.6287 1.6191
13.1336 -12.5159 3.0079
13.0665 -12.6058 3.0102
12.9938 -12.6906 3.0113
12.8778 -12.7326 3.0026
12.6460 -12.6578 2.9670
12.2672 -12.4303 2.8968
12.0964 -12.4086 2.8746
11.7715 -12.2246 2.8159
11.5051 -12.0956 2.7704
10.4819 -11.1563 2.5433
10.4180 -11.2255 2.5444
10.2729 -11.2063 2.5260
10.2304 -11.2984 2.5324
10.0905 -11.2823 2.5151
10.0073 -11.3284 2.5117
10.0077 -11.4699 2.5292
9.9861 -11.5879 2.5415
9.9174 -11.6520 2.5421
5.1641 -6.1443 1.3495
5.1011 -6.1455 1.3431
5.0670 -6.1812 1.3440
4.9917 -6.1662 1.3343
4.9119 -6.1443 1.3233
4.8203 -6.1062 1.3091
4.7706 -6.1201 1.3059
4.8865 -6.3486 1.3471
4.8438 -6.3738 1.3461
4.7105 -6.2779 1.3204
4.6942 -6.3368 1.3266
4.6983 -6.4244 1.3385
4.7593 -6.5923 1.3667
4.8889 -6.8600 1.4147
5.0705 -7.2079 1.4785
4.8004 -6.9138 1.4136
4.4857 -6.5460 1.3346
4.4565 -6.5897 1.3379
4.4044 -6.5997 1.3345
4.2026 -6.3818 1.2864
3.9569 -6.0898 1.2243
3.8805 -6.0533 1.2125
4.1509 -6.5632 1.3068
4.1889 -6.7141 1.3311
4.2506 -6.9069 1.3633
3.8850 -6.4006 1.2612
3.8177 -6.3778 1.2523
3.7936 -6.4266 1.2572
3.7442 -6.4327 1.2539
3.7159 -6.4752 1.2576
3.7840 -6.6885 1.2936
3.8992 -6.9917 1.3461
3.8438 -6.9930 1.3419
3.7275 -6.8811 1.3167
3.6806 -6.8952 1.3151
3.7691 -7.1665 1.3612
3.7260 -7.1913 1.3615
3.6854 -7.2210 1.3628
3.6073 -7.1765 1.3505
3.5396 -7.1507 1.3418
3.5354 -7.2539 1.3567
3.4759 -7.2443 1.3510
8.9637 -18.9745 3.4740
8.8538 -19.0435 3.4766
8.7511 -19.1288 3.4822
8.6591 -19.2389 3.4924
8.5621 -19.3394 3.5010
8.4795 -19.4749 3.5159
8.3843 -19.5837 3.5261
8.2732 -19.6566 3.5300
8.1554 -19.7143 3.5312
8.0228 -19.7356 3.5262
7.8825 -19.7368 3.5178
7.7400 -19.7306 3.5083
7.6092 -19.7528 3.5039
7.4861 -19.7945 3.5031
7.3645 -19.8401 3.5031
7.2325 -19.8571 3.4982
7.1012 -19.8751 3.4937
4.8684 -13.8956 2.4475
4.6372 -13.5006 2.3739
4.6591 -13.8402 2.4278
3.9740 -12.0496 2.1138
3.8882 -12.0371 2.1075
3.8145 -12.0617 2.1076
3.7422 -12.0905 2.1086
4.1099 -13.5724 2.3585
4.0588 -13.7062 2.3771
4.1761 -14.4266 2.4959
5.5667 -19.6802 3.3866
3.9438 -14.2779 2.4621
3.8454 -14.2619 2.4553
3.6515 -13.8815 2.3868
3.8832 -15.1386 2.5959
3.7749 -15.1009 2.5855
3.5948 -14.7652 2.5250
3.3455 -14.1177 2.4122
3.2517 -14.1072 2.4071
3.1535 -14.0749 2.3983
2.8013 -12.8732 2.1935
2.9456 -13.9474 2.3707
2.8598 -13.9642 2.3705
2.5327 -12.7658 2.1673
2.4456 -12.7355 2.1597
2.3593 -12.7066 2.1524
2.3017 -12.8345 2.1714
3.4030 -19.6657 3.3056
2.3538 -14.1194 2.3804
2.1578 -13.4525 2.2673
2.0735 -13.4548 2.2655
1.8689 -12.6423 2.1288
2.0227 -14.2872 2.3993
1.9387 -14.3268 2.4038
1.6696 -12.9359 2.1720
1.5757 -12.8274 2.1524
1.5023 -12.8829 2.1600
1.4288 -12.9419 2.1683
1.3574 -13.0280 2.1811
1.4010 -14.2951 2.3885
1.8161 -19.7750 3.2892
1.6944 -19.7829 3.2887
1.5728 -19.7899 3.2883
1.4508 -19.7913 3.2870
1.3284 -19.7871 3.2849
1.2063 -19.7840 3.2831
1.0843 -19.7792 3.2811
0.9614 -19.7559 3.2763
0.8369 -19.6826 3.2633
0.7128 -19.5986 3.2488
0.5940 -19.6499 3.2565
0.4733 -19.6483 3.2557
0.3523 -19.6252 3.2515
0.2309 -19.5510 3.2391
0.1099 -19.3734 3.2098
-0.0089 -19.2691 3.1926
-0.0446 -6.6317 1.1209
-0.0855 -6.6470 1.1235
-0.1264 -6.6523 1.1245
-0.1629 -6.4768 1.0959
-0.1993 -6.3711 1.0787
-0.2429 -6.4891 1.0983
-0.2520 -5.7806 0.9823
-0.2887 -5.8026 0.9862
-0.3282 -5.8717 0.9978
-0.3628 -5.8459 0.9939
-0.4033 -5.9125 1.0053
-0.4392 -5.9050 1.0045
-0.4918 -6.1058 1.0380
-0.5406 -6.2334 1.0595
-0.5707 -6.1425 1.0451
-0.6050 -6.1045 1.0394
-0.6216 -5.9025 1.0067
-0.6632 -5.9466 1.0147
-0.7208 -6.1228 1.0444
-0.7619 -6.1466 1.0491
-0.8100 -6.2221 1.0624
-0.8495 -6.2268 1.0640
-0.8801 -6.1677 1.0551
-0.9112 -6.1173 1.0477
-0.9502 -6.1213 1.0493
-0.9890 -6.1232 1.0506
-3.2925 -19.6364 3.2978
-3.4140 -19.6217 3.2988
-3.5350 -19.6043 3.2994
-3.6607 -19.6113 3.3043
-3.7818 -19.5933 3.3051
-3.9070 -19.5949 3.3093
-4.0349 -19.6083 3.3156
-3.1965 -15.0634 2.5582
-3.1822 -14.5556 2.4763
-3.2687 -14.5233 2.4742
-3.3515 -14.4761 2.4697
-3.4307 -14.4149 2.4629
-3.4790 -14.2297 2.4352
-3.5621 -14.1918 2.4325
-3.6359 -14.1181 2.4237
-3.6786 -13.9295 2.3956
-3.6692 -13.5561 2.3360
-3.7040 -13.3593 2.3064
-3.7803 -13.3164 2.3030
-3.7246 -12.8200 2.2223
-3.8029 -12.7960 2.2222
-3.9051 -12.8508 2.2356
-3.9877 -12.8388 2.2377
-4.0873 -12.8800 2.2490
-4.1897 -12.9269 2.2615
-4.2782 -12.9291 2.2663
-4.5873 -13.5833 2.3841
-4.3790 -12.7086 2.2374
-4.4615 -12.6945 2.2396
-4.5879 -12.8026 2.2632
-4.6542 -12.7408 2.2574
-4.7433 -12.7416 2.2626
-4.8413 -12.7648 2.2718
-4.9018 -12.6889 2.2637
-4.9290 -12.5300 2.2411
-4.9830 -12.4427 2.2311
-5.0727 -12.4448 2.2369
-5.1452 -12.4043 2.2353
-5.2162 -12.3607 2.2332
-5.2775 -12.2949 2.2272
-5.4393 -12.4604 2.2626
-5.7190 -12.8850 2.3448
-5.9027 -13.0817 2.3865
-6.4488 -14.0616 2.5698
-5.9256 -12.7140 2.3333
-6.0179 -12.7077 2.3388
-6.3177 -13.1321 2.4228
-6.4177 -13.1330 2.4300
-5.9477 -11.9840 2.2270
-6.0553 -12.0151 2.2395
-6.2035 -12.1236 2.2663
-6.1905 -11.9171 2.2353
-6.2607 -11.8737 2.2343
-6.3493 -11.8646 2.2398
-6.4069 -11.7977 2.2346
-6.4853 -11.7694 2.2367
-6.5748 -11.7604 2.2425
-4.8356 -8.5256 1.6406
-4.8883 -8.4966 1.6407
-4.9384 -8.4631 1.6401
-4.9958 -8.4419 1.6419
-5.0424 -8.4027 1.6402
-5.0969 -8.3766 1.6412
-5.1431 -8.3368 1.6396
-5.1622 -8.2540 1.6297
-5.1900 -8.1864 1.6228
-5.2828 -8.2208 1.6357
-5.2481 -8.0576 1.6102
-5.2844 -8.0054 1.6063
-4.7135 -7.0459 1.4235
-4.8059 -7.0896 1.4379
-4.8695 -7.0892 1.4437
-4.9264 -7.0787 1.4476
-4.9572 -7.0306 1.4440
-5.0175 -7.0241 1.4489
-5.6267 -7.7760 1.6072
-5.6790 -7.7477 1.6085
-5.7059 -7.6849 1.6029
-5.7096 -7.5922 1.5911
-5.7005 -7.4840 1.5760
-5.7144 -7.4075 1.5674
-5.8988 -7.5504 1.6045
-5.8061 -7.3383 1.5678
-5.8405 -7.2895 1.5650
-5.4730 -6.7454 1.4578
-5.5105 -6.7071 1.4568
-5.6361 -6.7748 1.4785
-5.9979 -7.1205 1.5600
-5.9685 -6.9980 1.5416
-5.8366 -6.7588 1.4977
-5.6889 -6.5067 1.4506
-5.7235 -6.4657 1.4493
-5.7677 -6.4356 1.4505
-5.7952 -6.3870 1.4476
-5.8396 -6.3571 1.4489
-5.8724 -6.3146 1.4474
-5.9002 -6.2670 1.4448
-6.4110 -6.7265 1.5571
-6.4453 -6.6799 1.5555
-6.3876 -6.5393 1.5323
-6.3887 -6.4607 1.5233
-6.3208 -6.3139 1.4984
-6.3615 -6.2771 1.4989
-6.4698 -6.3062 1.5149
-6.5454 -6.3019 1.5233
-6.7062 -6.3780 1.5509
-6.8171 -6.4043 1.5671
-6.8866 -6.3905 1.5739
-6.8646 -6.2921 1.5603
-6.8855 -6.2340 1.5564
-6.9237 -6.1916 1.5564
-7.0222 -6.2026 1.5697
-7.1389 -6.2282 1.5869
-7.2502 -6.2474 1.6027
-7.2764 -6.1926 1.6001
-7.2992 -6.1351 1.5969
-7.3306 -6.0851 1.5956
-18.3156 -15.0175 3.9166
-18.4350 -14.9272 3.9224
-18.5926 -14.8668 3.9363
-18.7369 -14.7946 3.9475
-9.0539 -7.0583 1.9157
-9.0876 -6.9954 1.9138
-9.1100 -6.9240 1.9096
-9.1546 -6.8697 1.9101
-9.2006 -6.8164 1.9109
-19.8167 -14.4958 4.0588
-20.0044 -14.4456 4.0789
-20.0903 -14.3209 4.0784
-20.2036 -14.2155 4.0835
-21.1204 -14.6677 4.2492
-21.3639 -14.6433 4.2798
-21.5293 -14.5634 4.2948
-19.4384 -12.9757 3.8652
-19.4863 -12.8356 3.8590
-19.5292 -12.6926 3.8520
-17.2185 -11.0410 3.3869
-17.0674 -10.7969 3.3446
-19.7687 -12.3368 3.8538
-19.1121 -11.7646 3.7129
-19.3104 -11.7239 3.7372
-10.5364 -6.3081 2.0469
-10.5545 -6.2313 2.0431
-10.5184 -6.1232 2.0290
-10.4043 -5.9716 2.0004
-10.0551 -5.6894 1.9277
-10.0752 -5.6194 1.9250
-10.2617 -5.6412 1.9534
-10.6943 -5.7939 2.0277
-10.7262 -5.7263 2.0271
-10.6266 -5.5897 2.0021
-10.6081 -5.4971 1.9924
-10.7164 -5.4701 2.0062
-10.7744 -5.4166 2.0107
-10.9587 -5.4253 2.0384
-11.0716 -5.3969 2.0529
-11.1232 -5.3378 2.0563
-11.2057 -5.2931 2.0654
-11.2263 -5.2188 2.0633
-11.3344 -5.1847 2.0770
-11.4776 -5.1653 2.0971
-11.8222 -5.2334 2.1532
-11.6550 -5.0741 2.1176
-11.6487 -4.9866 2.1110
-11.7182 -4.9315 2.1180
-11.8568 -4.9044 2.1372
-11.9964 -4.8761 2.1566
-11.8703 -4.7402 2.1291
-11.8890 -4.6633 2.1274
-11.9174 -4.5903 2.1274
-12.2093 -4.6169 2.1736
-12.1616 -4.5137 2.1604
-12.1770 -4.4346 2.1583
-12.3684 -4.4186 2.1869
-17.1514 -6.0095 3.0131
-56.6368 -16.0229 9.6829
-56.8406 -15.7045 9.7011
-56.7777 -15.3128 9.6742
-56.9479 -14.9845 9.6873
-27.4690 1.7240 4.1966
-27.6029 1.9025 4.2186
-17.7552 1.9942 2.7362
-17.6366 2.0905 2.7201
-17.5763 2.1928 2.7129
-17.3900 2.2781 2.6866
-17.3248 2.3778 2.6788
-17.2638 2.4774 2.6718
-17.3031 2.5915 2.6802
-17.3777 2.7118 2.6941
-17.4027 2.8252 2.7005
-17.6366 2.9742 2.7391
-79.4558 16.4138 12.3044
-73.5067 16.1281 11.4154
-73.3659 16.5697 11.4091
-59.3592 13.7904 9.2505
-58.0069 13.8520 9.0535
-57.3974 14.0793 8.9720
-50.5654 12.7334 7.9202
-57.0939 14.7500 8.9523
-44.8808 11.8899 7.0559
-44.8061 12.1648 7.0557
-45.3117 12.6010 7.1469
-7.8959 2.2515 1.2759
-7.7386 2.2582 1.2533
-7.6810 2.2926 1.2464
-7.6044 2.3207 1.2366
-7.5400 2.3517 1.2286
-7.5065 2.3919 1.2256
-7.4598 2.4276 1.2206
-7.4438 2.4730 1.2204
-7.4275 2.5183 1.2203
-7.3820 2.5535 1.2155
-7.3662 2.5987 1.2155
-7.3529 2.6449 1.2159
-7.3412 2.6917 1.2167
-7.3283 2.7380 1.2173
-7.3446 2.7956 1.2226
-7.3550 2.8513 1.2271
-7.3585 2.9047 1.2306
-7.3699 2.9616 1.2354
-7.3964 3.0251 1.2427
-7.4270 3.0909 1.2508
-7.4708 3.1630 1.2611
-12.4978 5.3791 2.0919
-12.3749 5.4165 2.0771
-28.4998 12.6776 4.7515
-28.4674 12.8730 4.7592
-28.5011 13.0995 4.7780
-28.3342 13.2339 4.7636
-28.3873 13.4715 4.7862
-29.1156 14.0365 4.9225
-28.9144 14.1588 4.9032
-28.8110 14.3281 4.9005
-24.8274 12.5382 4.2406
-24.1851 12.4007 4.1446
-23.9147 12.4480 4.1115
-23.8475 12.5996 4.1132
-23.7758 12.7490 4.1142
-23.6407 12.8639 4.1045
-23.5795 13.0187 4.1076
-28.4425 15.9312 4.9645
-23.5108 13.3599 4.1238
-28.8420 16.6231 5.0687
-23.8061 13.9168 4.2045
-23.8095 14.1155 4.2202
-8.1415 4.8975 1.4710
-8.0167 4.8897 1.4543
-7.9083 4.8905 1.4404
-7.8656 4.9310 1.4381
-7.8060 4.9606 1.4329
-7.7529 4.9940 1.4289
-7.7023 5.0285 1.4253
-7.6614 5.0691 1.4235
-7.6351 5.1194 1.4244
-7.6599 5.2044 1.4347
-7.5896 5.2250 1.4277
-7.5476 5.2647 1.4259
-7.6250 5.3884 1.4462
-7.6160 5.4524 1.4507
-7.3486 5.3296 1.4070
-7.4584 5.4793 1.4338
-7.5516 5.6194 1.4577
-33.5891 25.2992 6.3937
-32.3286 24.6623 6.1836
-32.0155 24.7357 6.1528
-31.7829 24.8689 6.1374
-31.5274 24.9824 6.1177
-31.4067 25.2020 6.1241
-31.7533 25.8020 6.2219
-31.6189 26.0164 6.2267
-31.4320 26.1878 6.2215
-31.2927 26.3987 6.2258
-24.7000 21.0989 4.9470
-25.8707 22.3746 5.2070
-25.6570 22.4665 5.1918
-25.6660 22.7541 5.2215
-24.1188 21.6485 4.9356
-23.2888 21.1631 4.7933
-23.6214 21.7313 4.8884
-23.2415 21.6468 4.8375
-21.4168 20.1944 4.4860
-2.8749 2.7491 0.6357
-2.8061 2.7165 0.6248
-2.7654 2.7102 0.6197
-2.6974 2.6763 0.6088
-2.6516 2.6634 0.6025
-2.6345 2.6789 0.6024
-2.6097 2.6865 0.6006
-2.5692 2.6776 0.5953
-2.5337 2.6732 0.5912
-2.5152 2.6865 0.5907
-2.4765 2.6780 0.5858
-2.4573 2.6902 0.5852
-2.4328 2.6964 0.5834
-2.4235 2.7194 0.5850
-2.4087 2.7365 0.5855
-2.3665 2.7221 0.5796
-2.3530 2.7403 0.5804
-2.3304 2.7480 0.5790
-2.3033 2.7501 0.5767
-2.2820 2.7588 0.5756
-2.2663 2.7743 0.5759
-2.2529 2.7928 0.5768
-2.2382 2.8096 0.5774
-2.2313 2.8365 0.5799
-2.2181 2.8556 0.5810
-2.2084 2.8794 0.5829
-2.1907 2.8929 0.5829
-2.1788 2.9142 0.5844
-2.1703 2.9402 0.5868
-2.1540 2.9559 0.5873
-2.1566 2.9979 0.5927
-2.1416 3.0159 0.5936
-2.1288 3.0371 0.5950
-2.1484 3.1053 0.6052
-2.1427 3.1380 0.6088
-2.1350 3.1683 0.6119
-2.1496 3.2324 0.6212
-2.1574 3.2876 0.6288
-3.2987 5.0907 0.9515
-3.2706 5.1159 0.9524
-3.2359 5.1308 0.9515
-3.1301 5.0314 0.9303
-3.0361 4.9478 0.9121
-2.9780 4.9206 0.9040
-2.9274 4.9049 0.8980
-2.8802 4.8938 0.8929
-2.8397 4.8934 0.8898
-2.8027 4.8987 0.8877
-2.7687 4.9090 0.8865
-2.7376 4.9241 0.8862
-2.7083 4.9426 0.8865
-2.6784 4.9600 0.8866
-2.6479 4.9763 0.8866
-2.6228 5.0030 0.8884
-2.5980 5.0304 0.8904
-2.5724 5.0568 0.8922
-2.5480 5.0857 0.8944
-2.5198 5.1075 0.8955
-2.4941 5.1344 0.8974
-2.4659 5.1567 0.8986
-2.4406 5.1852 0.9008
-2.4403 5.2682 0.9122
-2.4277 5.3263 0.9194
-2.4557 5.4764 0.9418
-2.4413 5.5347 0.9490
-6.3455 14.6125 2.4435
-6.5813 15.4131 2.5688
-6.5521 15.6091 2.5943
-6.4634 15.6664 2.5972
-6.6414 16.3819 2.7075
-6.5331 16.4031 2.7044
-6.4244 16.4226 2.7011
-6.3235 16.4617 2.7011
-7.4159 19.6631 3.2124
-6.9874 18.8774 3.0784
-6.9326 19.0881 3.1054
-6.7562 18.9645 3.0788
-6.6244 18.9618 3.0718
-6.5535 19.1349 3.0930
-6.4806 19.3078 3.1143
-6.3559 19.3285 3.1113
-6.2277 19.3379 3.1066
-6.1631 19.5474 3.1339
-5.4841 17.7747 2.8473
-5.3747 17.8071 2.8472
-5.2701 17.8558 2.8497
-5.1859 17.9762 2.8636
-5.0012 17.7441 2.8222
-4.8961 17.7887 2.8245
-4.8467 18.0409 2.8593
-4.7184 18.0033 2.8488
-4.5970 17.9898 2.8423
-5.7551 23.1073 3.6355
-5.5966 23.0740 3.6249
-5.4518 23.0944 3.6228
-5.3020 23.0927 3.6175
-5.1555 23.1036 3.6142
-5.0082 23.1097 3.6103
-4.8604 23.1119 3.6059
-4.7133 23.1161 3.6021
-4.5677 23.1262 3.5992
-4.4194 23.1207 3.5941
-4.2726 23.1212 3.5901
-4.1262 23.1217 3.5862
-3.9820 23.1339 3.5843
-3.8398 23.1569 3.5841
-2.4673 15.4754 2.4041
-2.4213 15.8098 2.4530
-2.2348 15.2159 2.3600
-2.1088 14.9983 2.3247
-1.9831 14.7610 2.2866
-1.9143 14.9426 2.3125
-1.8534 15.2063 2.3509
-1.7297 14.9561 2.3111
-1.6255 14.8534 2.2939
-1.5236 14.7589 2.2781
-1.4231 14.6666 2.2627
-1.3390 14.7400 2.2725
-1.2369 14.6110 2.2517
-1.1184 14.2516 2.1961
-1.0359 14.3273 2.2066
-0.9532 14.4123 2.2186
-0.8666 14.4475 2.2230
-0.7972 14.8089 2.2770
-0.7174 15.0456 2.3122
-0.6230 15.0004 2.3047
-0.5435 15.3557 2.3579
-0.4492 15.3558 2.3575
-0.5411 23.3215 3.5621
-0.3980 23.3244 3.5621
-0.2638 24.1312 3.6838
-0.1158 24.1511 3.6867
0.0324 24.1533 3.6870
0.1806 24.1547 3.6873
0.3289 24.1620 3.6886
0.4774 24.1704 3.6903
0.6258 24.1700 3.6907
0.7744 24.1766 3.6924
0.9229 24.1763 3.6931
1.0718 24.1830 3.6951
1.2209 24.1908 3.6973
1.3699 24.1927 3.6988
1.5191 24.1957 3.7006
1.6681 24.1948 3.7019
1.8169 24.1890 3.7027
1.9664 24.1912 3.7048
2.1171 24.2053 3.7088
2.2678 24.2155 3.7124
2.4174 24.2119 3.7141
2.5678 24.2143 3.7167
2.7183 24.2158 3.7194
2.8687 24.2144 3.7218
3.0185 24.2062 3.7233
3.1702 24.2117 3.7271
3.3216 24.2133 3.7304
3.4724 24.2082 3.7327
3.6249 24.2138 3.7369
3.7789 24.2262 3.7423
3.9318 24.2290 3.7464
4.0843 24.2278 3.7499
4.2363 24.2217 3.7529
4.3901 24.2245 3.7574
2.9252 15.5876 2.4327
3.0150 15.5392 2.4281
3.1038 15.4884 2.4231
3.1730 15.3442 2.4038
3.2560 15.2722 2.3958
3.4196 15.5707 2.4451
3.5305 15.6179 2.4557
3.6269 15.5988 2.4562
3.7058 15.5060 2.4452
3.7936 15.4532 2.4406
3.9050 15.4958 2.4509
3.9560 15.3012 2.4243
3.9835 15.0262 2.3851
4.0303 14.8345 2.3590
4.0759 14.6466 2.3334
4.1286 14.4910 2.3129
4.4329 15.2049 2.4294
4.7539 15.9421 2.5501
4.8724 15.9808 2.5608
7.5729 24.3092 3.8848
7.7291 24.2849 3.8884
1.7781 5.4605 0.9026
1.7748 5.3388 0.8850
1.7942 5.2884 0.8787
1.8015 5.2044 0.8671
1.8173 5.1476 0.8597
1.8381 5.1066 0.8549
1.8575 5.0627 0.8497
1.8851 5.0419 0.8482
1.9009 4.9905 0.8418
1.9269 4.9668 0.8398
1.9519 4.9411 0.8376
1.9840 4.9336 0.8383
2.0161 4.9259 0.8391
2.0429 4.9052 0.8377
2.0745 4.8962 0.8383
2.1123 4.9016 0.8413
2.1467 4.8985 0.8430
2.1871 4.9087 0.8469
2.2168 4.8943 0.8467
2.2418 4.8698 0.8449
2.3081 4.9339 0.8579
2.3519 4.9482 0.8627
2.4054 4.9818 0.8708
2.4715 5.0398 0.8831
2.5596 5.1396 0.9025
2.6383 5.2174 0.9183
2.6874 5.2345 0.9240
7.6591 14.7110 2.5424
7.7473 14.6603 2.5418
8.8910 16.5785 2.8792
9.9634 18.3085 3.1865
10.0656 18.2289 3.1834
10.8540 19.3754 3.3929
10.9727 19.3084 3.3929
9.1159 15.8130 2.7946
8.8491 15.1345 2.6856
2.0269 3.4123 0.6344
1.9724 3.2744 0.6122
1.9575 3.2048 0.6021
1.9376 3.1288 0.5907
1.9489 3.1043 0.5885
1.9610 3.0814 0.5865
1.9746 3.0610 0.5850
1.9884 3.0414 0.5837
2.0005 3.0192 0.5819
2.0190 3.0069 0.5819
2.0352 2.9912 0.5813
2.0502 2.9737 0.5804
2.0661 2.9578 0.5798
2.0819 2.9419 0.5792
2.0976 2.9258 0.5786
2.1138 2.9105 0.5781
2.1305 2.8959 0.5779
2.1517 2.8875 0.5787
2.1724 2.8782 0.5795
2.1864 2.8601 0.5786
2.1991 2.8404 0.5774
2.2128 2.8222 0.5765
2.2497 2.8333 0.5813
2.2671 2.8195 0.5813
2.2949 2.8186 0.5838
2.3222 2.8166 0.5862
2.3540 2.8198 0.5897
2.3872 2.8242 0.5934
2.4353 2.8456 0.6006
2.4928 2.8770 0.6099
2.5437 2.8996 0.6175
2.6185 2.9483 0.6305
2.7190 3.0241 0.6492
16.0469 17.6573 3.6426
16.1965 17.6037 3.6518
16.3015 17.5010 3.6513
16.2417 17.2237 3.6145
14.8726 15.5787 3.2915
14.9535 15.4722 3.2883
15.2632 15.6000 3.3348
15.3565 15.5039 3.3344
15.4436 15.4017 3.3327
15.3294 15.1012 3.2885
15.5861 15.1669 3.3232
15.8991 15.2828 3.3694
16.0442 15.2339 3.3801
15.3334 14.3809 3.2134
16.1270 14.9405 3.3589
16.1228 14.7538 3.3393
16.1800 14.6247 3.3326
16.4074 14.6483 3.3606
16.4510 14.5068 3.3513
16.5620 14.4251 3.3558
16.6607 14.3322 3.3579
17.9078 15.2152 3.5880
6.7805 5.6865 1.3725
6.7338 5.5773 1.3565
6.7044 5.4839 1.3441
6.7172 5.4258 1.3400
6.7156 5.3568 1.3333
6.7382 5.3075 1.3314
6.7691 5.2648 1.3311
6.7887 5.2136 1.3287
6.8096 5.1634 1.3266
6.8443 5.1239 1.3272
6.8851 5.0889 1.3290
6.9234 5.0518 1.3303
6.9896 5.0347 1.3369
7.0534 5.0152 1.3430
7.1455 5.0150 1.3544
7.2460 5.0195 1.3672
20.4114 13.9637 3.7743
20.6590 13.9478 3.8039
20.7985 13.8569 3.8138
21.1309 13.8920 3.8587
21.2340 13.7740 3.8619
21.3448 13.6605 3.8667
21.9549 13.8619 3.9609
22.0504 13.7337 3.9629
34.4248 21.1514 6.1446
26.9888 16.3542 4.8067
27.0054 16.1386 4.7921
27.0750 15.9555 4.7870
6.1774 3.5860 1.1144
6.1967 3.5465 1.1139
6.1572 3.4739 1.1033
6.1456 3.4178 1.0976
6.1214 3.3553 1.0899
6.1036 3.2970 1.0833
6.0914 3.2422 1.0777
6.0911 3.1942 1.0743
6.0886 3.1454 1.0706
6.0981 3.1031 1.0689
6.0967 3.0554 1.0655
6.1038 3.0122 1.0635
6.1079 2.9678 1.0611
6.1323 2.9333 1.0622
6.1528 2.8969 1.0626
6.1849 2.8657 1.0650
6.2320 2.8413 1.0700
6.2592 2.8074 1.0716
6.3469 2.8001 1.0833
6.4202 2.7856 1.0926
6.4944 2.7706 1.1020
6.5615 2.7518 1.1102
6.6065 2.7231 1.1148
12.2305 4.9573 2.0300
12.3268 4.9085 2.0408
12.3788 4.8414 2.0443
37.7424 14.5036 6.1491
37.7947 14.2581 6.1433
37.7312 13.9703 6.1190
37.8097 13.7362 6.1180
37.8933 13.5039 6.1180
38.2508 13.3674 6.1621
38.8157 13.2982 6.2394
11.6463 3.7490 1.8845
17.2513 5.4387 2.7697
11.5847 3.5729 1.8676
11.4985 3.4691 1.8505
11.4504 3.3781 1.8396
11.3958 3.2861 1.8278
11.3539 3.1986 1.8181
11.3752 3.1294 1.8184
11.3923 3.0591 1.8181
11.4147 2.9901 1.8187
11.4415 2.9222 1.8200
11.4755 2.8560 1.8226
11.5418 2.7975 1.8302
11.6126 2.7393 1.8386
11.7371 2.6928 1.8553
11.9937 2.6744 1.8926
22.5328 4.8830 3.5210
22.7094 4.7756 3.5437
17.3450 3.5356 2.7113
17.1831 3.3929 2.6830
17.1919 3.2851 2.6812
17.1991 3.1773 2.6793
17.2845 3.0835 2.6894
17.3079 2.9782 2.6902
17.4966 2.9003 2.7164
17.5033 2.7912 2.7147
26.3943 -5.7938 4.1209
26.1403 -5.9064 4.0871
16.5397 -5.1538 2.6541
16.5614 -5.2723 2.6627
14.5041 -4.7160 2.3407
14.4073 -4.7825 2.3300
14.0246 -4.7513 2.2736
14.3298 -4.9528 2.3271
14.3971 -5.0752 2.3428
14.4429 -5.1911 2.3552
14.4034 -5.2770 2.3540
14.7385 -5.5024 2.4134
14.7211 -5.5991 2.4161
14.7372 -5.7089 2.4243
14.4719 -5.7086 2.3869
14.0181 -5.6294 2.3187
13.9458 -5.7000 2.3126
13.9261 -5.7919 2.3152
13.8876 -5.8761 2.3147
13.9176 -5.9897 2.3256
13.7700 -6.0266 2.3074
13.8258 -6.1524 2.3228
13.9698 -6.3194 2.3530
14.0009 -6.4372 2.3646
14.1242 -6.5991 2.3919
14.0602 -6.6746 2.3880
13.9290 -6.7174 2.3729
15.2622 -7.4757 2.6044
14.2891 -7.1084 2.4478
13.9301 -7.0368 2.3944
13.2954 -6.8191 2.2939
13.1936 -6.8695 2.2837
13.1232 -6.9356 2.2790
13.0578 -7.0038 2.2751
10.5582 -5.7477 1.8522
10.4942 -5.7966 1.8473
9.8269 -5.5072 1.7378
9.8755 -5.6143 1.7522
9.8700 -5.6916 1.7572
9.9441 -5.8159 1.7764
10.1958 -6.0472 1.8269
9.9237 -5.9686 1.7855
10.1259 -6.1749 1.8278
9.7673 -6.0390 1.7708
9.8072 -6.1471 1.7846
9.7534 -6.1971 1.7818
9.6869 -6.2386 1.7767
9.4613 -6.1758 1.7429
9.3853 -6.2087 1.7360
9.2837 -6.2238 1.7245
9.9408 -6.7527 1.8516
9.9423 -6.8432 1.8595
10.0559 -7.0126 1.8882
9.9052 -6.9984 1.8683
9.8903 -7.0791 1.8736
9.5792 -6.9459 1.8236
9.5348 -7.0034 1.8233
9.7543 -7.2570 1.8728
9.7602 -7.3548 1.8824
9.7219 -7.4200 1.8837
9.1003 -7.0346 1.7737
8.9947 -7.0416 1.7617
9.1024 -7.2164 1.7909
9.0772 -7.2875 1.7946
16.9982 -13.8147 3.3468
17.1192 -14.0883 3.3872
17.0568 -14.2133 3.3920
16.9647 -14.3139 3.3911
16.8345 -14.3818 3.3827
7.3227 -6.3369 1.4987
7.2279 -6.3328 1.4875
7.1556 -6.3476 1.4807
7.1136 -6.3887 1.4801
7.0933 -6.4495 1.4840
7.0914 -6.5277 1.4918
7.0744 -6.5927 1.4966
13.2659 -12.5108 2.7919
13.1967 -12.5995 2.7935
13.1263 -12.6871 2.7950
12.9761 -12.6968 2.7798
12.9577 -12.8354 2.7925
12.8312 -12.8670 2.7823
12.7312 -12.9244 2.7778
12.6606 -13.0115 2.7798
12.6024 -13.1117 2.7845
10.9801 -11.5657 2.4460
11.0030 -11.7331 2.4668
10.5860 -11.4284 2.3901
10.4048 -11.3720 2.3652
5.7028 -6.3128 1.3207
5.6666 -6.3507 1.3213
5.6282 -6.3861 1.3215
5.5934 -6.4257 1.3225
5.4707 -6.3632 1.3032
5.2881 -6.2279 1.2698
5.1875 -6.1860 1.2551
5.1557 -6.2253 1.2566
5.1018 -6.2377 1.2529
5.0510 -6.2535 1.2499
5.0298 -6.3060 1.2540
5.0896 -6.4618 1.2781
5.0589 -6.5046 1.2804
4.8261 -6.2847 1.2325
4.7599 -6.2779 1.2256
4.6834 -6.2564 1.2161
4.6578 -6.3025 1.2194
4.6383 -6.3573 1.2243
4.6426 -6.4458 1.2355
4.4998 -6.3292 1.2086
4.4404 -6.3275 1.2032
4.4144 -6.3733 1.2066
4.3624 -6.3815 1.2032
4.2158 -6.2492 1.1742
4.2010 -6.3104 1.1806
4.2409 -6.4558 1.2023
4.1808 -6.4502 1.1966
4.1049 -6.4191 1.1865
4.2354 -6.7133 1.2346
4.3442 -6.9801 1.2775
4.3049 -7.0125 1.2786
4.1296 -6.8206 1.2400
3.9969 -6.6939 1.2132
3.9733 -6.7481 1.2185
3.8553 -6.6407 1.1954
3.7722 -6.5905 1.1826
3.7599 -6.6634 1.1912
3.7074 -6.6656 1.1877
3.6759 -6.7056 1.1906
10.2647 -18.9853 3.2982
10.1411 -19.0349 3.2960
10.0176 -19.0845 3.2939
3.7283 -7.2153 1.2624
3.7002 -7.2698 1.2678
3.6834 -7.3480 1.2772
3.6518 -7.3980 1.2819
9.2268 -18.9703 3.2245
9.0965 -18.9980 3.2197
8.9524 -18.9953 3.2100
8.8419 -19.0633 3.2122
8.7297 -19.1280 3.2140
8.6268 -19.2137 3.2194
8.5279 -19.3097 3.2266
8.4404 -19.4333 3.2384
8.3482 -19.5484 3.2489
8.2369 -19.6202 3.2523
8.1393 -19.7261 3.2614
7.9973 -19.7244 3.2530
7.8564 -19.7235 3.2450
7.7172 -19.7253 3.2375
7.5790 -19.7279 3.2303
7.4557 -19.7685 3.2294
7.3710 -19.9131 3.2454
7.2798 -20.0435 3.2592
4.8090 -13.5022 2.2018
4.7228 -13.5221 2.2003
6.8279 -19.9356 3.2210
6.7167 -20.0108 3.2264
6.5818 -20.0150 3.2206
4.7141 -14.6409 2.3603
3.8268 -12.1425 1.9596
4.5037 -14.5994 2.3448
4.3780 -14.5075 2.3259
4.4043 -14.9248 2.3875
4.1928 -14.5364 2.3222
4.0880 -14.5066 2.3135
3.7857 -13.7574 2.1921
3.8519 -14.3409 2.2799
3.6436 -13.9061 2.2082
5.0346 -19.7007 3.1093
3.4450 -13.8385 2.1909
3.3933 -13.9968 2.2123
3.2994 -13.9837 2.2070
3.2238 -14.0480 2.2139
3.1703 -14.2142 2.2366
2.7913 -12.8883 2.0285
2.7111 -12.9003 2.0277
2.6240 -12.8780 2.0218
2.5421 -12.8793 2.0195
2.4396 -12.7723 2.0007
4.2859 -23.1931 3.6012
3.5653 -19.9816 3.1038
3.4021 -19.7683 3.0678
2.3621 -14.2543 2.2193
2.2638 -14.2012 2.2090
2.0551 -13.4222 2.0877
2.8893 -19.6649 3.0401
1.7815 -12.6749 1.9699
1.7094 -12.7277 1.9763
1.6663 -13.0106 2.0179
1.5758 -12.9342 2.0047
1.4976 -12.9535 2.0062
1.4336 -13.1039 2.0277
2.0425 -19.7728 3.0404
1.9212 -19.7859 3.0405
1.7990 -19.7885 3.0392
1.6763 -19.7843 3.0370
1.5546 -19.7913 3.0365
1.4321 -19.7857 3.0343
1.3095 -19.7763 3.0316
1.1875 -19.7741 3.0301
1.0656 -19.7712 3.0286
0.9439 -19.7694 3.0274
0.8168 -19.6356 3.0063
0.6959 -19.6283 3.0045
0.5757 -19.6411 3.0059
0.4547 -19.6235 3.0027
0.3341 -19.6161 3.0012
0.2119 -19.4576 2.9770
0.0919 -19.3231 2.9565
-0.0266 -19.1908 2.9365
-0.1436 -19.0884 2.9211
-0.2591 -18.9665 2.9028
-0.3738 -18.8826 2.8904
-0.4893 -18.8671 2.8885
-0.6052 -18.8667 2.8889
-0.7208 -18.8577 2.8882
-0.2915 -6.5124 1.0200
-0.3143 -6.1698 0.9684
-0.3755 -6.5814 1.0311
-0.3720 -5.8783 0.9249
-0.4071 -5.8611 0.9227
-0.4648 -6.1484 0.9666
-0.4865 -5.9483 0.9367
-0.5249 -5.9669 0.9400
-0.5623 -5.9724 0.9414
-0.5975 -5.9541 0.9391
-0.6419 -6.0250 0.9505
-0.6725 -5.9640 0.9418
-0.7114 -5.9794 0.9448
-0.7400 -5.9101 0.9349
-0.7941 -6.0418 0.9557
-0.8704 -6.3238 0.9995
-0.9199 -6.3927 1.0109
-2.9353 -19.6021 3.0317
-3.0608 -19.6179 3.0370
-3.1818 -19.6026 3.0376
-2.6219 -15.5442 2.4182
-3.4328 -19.6235 3.0470
-2.7631 -15.2384 2.3763
-2.8376 -15.1201 2.3608
-3.0501 -15.7208 2.4560
-3.0212 -15.0754 2.3594
-3.1108 -15.0431 2.3573
-3.2292 -15.1465 2.3763
-3.3255 -15.1419 2.3787
-3.3746 -14.9273 2.3486
