0.6443 0.1541 -0.1676
0.6285 0.1463 -0.1621
0.6136 0.1389 -0.1569
0.6033 0.1327 -0.1532
0.5995 0.1280 -0.1516
0.6133 0.1270 -0.1559
0.6439 0.1291 -0.1658
0.6428 0.1248 -0.1652
0.6529 0.1226 -0.1683
0.6471 0.1174 -0.1661
0.6525 0.1143 -0.1676
0.6373 0.1076 -0.1624
0.6201 0.1008 -0.1565
0.6244 0.0976 -0.1578
0.6203 0.0931 -0.1562
0.6162 0.0886 -0.1547
0.6129 0.0843 -0.1535
0.6134 0.0805 -0.1535
0.6130 0.0767 -0.1532
0.6163 0.0732 -0.1541
0.6148 0.0692 -0.1535
0.6323 0.0672 -0.1590
0.6308 0.0632 -0.1584
0.6311 0.0593 -0.1584
0.6486 0.0569 -0.1639
0.6404 0.0522 -0.1612
0.6359 0.0479 -0.1596
0.6296 0.0436 -0.1575
0.6241 0.0394 -0.1556
0.6177 0.0352 -0.1535
0.6208 0.0315 -0.1544
0.6257 0.0279 -0.1559
0.6325 0.0243 -0.1581
0.6364 0.0206 -0.1593
0.6356 0.0166 -0.1590
0.6300 0.0126 -0.1572
0.6291 0.0088 -0.1569
0.6387 0.0050 -0.1599
0.6406 0.0010 -0.1605
0.6282 -0.0028 -0.1565
0.6253 -0.0066 -0.1556
0.6234 -0.0104 -0.1550
0.6261 -0.0143 -0.1559
0.6251 -0.0181 -0.1556
0.6259 -0.0220 -0.1559
0.6343 -0.0262 -0.1587
0.6484 -0.0308 -0.1633
0.6558 -0.0352 -0.1658
0.6508 -0.0390 -0.1642
0.6382 -0.0421 -0.1602
0.6427 -0.0464 -0.1618
0.6329 -0.0496 -0.1587
0.6279 -0.0530 -0.1572
0.6238 -0.0565 -0.1559
0.6215 -0.0602 -0.1553
0.6183 -0.0637 -0.1544
0.6141 -0.0670 -0.1532
0.6127 -0.0707 -0.1528
0.6189 -0.0753 -0.1550
0.6165 -0.0788 -0.1544
0.6189 -0.0830 -0.1553
0.6193 -0.0869 -0.1556
0.6197 -0.0909 -0.1559
0.6163 -0.0942 -0.1550
0.6138 -0.0977 -0.1544
0.6142 -0.1016 -0.1547
0.6163 -0.1059 -0.1556
0.6175 -0.1100 -0.1562
0.6262 -0.1155 -0.1593
0.6227 -0.1188 -0.1584
0.6238 -0.1230 -0.1590
0.6212 -0.1265 -0.1584
0.6204 -0.1303 -0.1584
0.6196 -0.1341 -0.1584
0.6160 -0.1373 -0.1575
0.6133 -0.1406 -0.1569
0.6263 -0.1477 -0.1615
0.6143 -0.1488 -0.1578
0.6096 -0.1516 -0.1565
0.6078 -0.1551 -0.1562
0.6096 -0.1596 -0.1572
0.6370 -0.1710 -0.1667
0.6177 -0.1699 -0.1605
0.6322 -0.1781 -0.1658
0.6320 -0.1822 -0.1661
0.6272 -0.1850 -0.1649
0.6024 -0.1816 -0.1569
0.5976 -0.1842 -0.1556
0.6255 -0.1971 -0.1655
0.6116 -0.1968 -0.1612
0.6022 -0.1979 -0.1584
0.6019 -0.2019 -0.1587
0.6169 -0.2111 -0.1642
0.6102 -0.2130 -0.1624
0.5990 -0.2132 -0.1590
0.5905 -0.2143 -0.1565
0.5865 -0.2169 -0.1556
0.5870 -0.2212 -0.1562
0.5847 -0.2244 -0.1559
0.5851 -0.2287 -0.1565
0.5881 -0.2341 -0.1581
0.5875 -0.2380 -0.1584
0.5896 -0.2431 -0.1596
0.5819 -0.2441 -0.1575
0.5909 -0.2522 -0.1612
0.5815 -0.2524 -0.1584
0.5878 -0.2594 -0.1612
0.5766 -0.2587 -0.1578
0.5655 -0.2579 -0.1544
0.5639 -0.2613 -0.1544
0.5718 -0.2693 -0.1578
0.5633 -0.2695 -0.1553
0.5787 -0.2813 -0.1615
0.5616 -0.2772 -0.1559
0.5506 -0.2760 -0.1525
0.5514 -0.2806 -0.1535
0.5564 -0.2875 -0.1559
0.5471 -0.2869 -0.1532
0.5545 -0.2952 -0.1565
0.5694 -0.3077 -0.1627
0.5625 -0.3084 -0.1609
0.5631 -0.3133 -0.1618
0.5620 -0.3172 -0.1621
0.5526 -0.3164 -0.1593
0.5433 -0.3154 -0.1565
0.5405 -0.3183 -0.1562
0.5679 -0.3392 -0.1673
0.5439 -0.3293 -0.1590
0.5135 -0.3152 -0.1482
0.5237 -0.3259 -0.1528
0.5176 -0.3266 -0.1513
0.5324 -0.3405 -0.1578
0.5232 -0.3391 -0.1550
0.5227 -0.3434 -0.1556
0.5237 -0.3487 -0.1569
0.5176 -0.3492 -0.1553
0.5068 -0.3465 -0.1519
0.5078 -0.3517 -0.1532
0.5057 -0.3548 -0.1532
0.5097 -0.3624 -0.1556
0.5028 -0.3621 -0.1538
0.5036 -0.3675 -0.1550
0.4999 -0.3694 -0.1544
0.4961 -0.3713 -0.1538
0.4900 -0.3715 -0.1522
0.4862 -0.3733 -0.1516
0.4831 -0.3757 -0.1513
0.4793 -0.3775 -0.1507
0.4792 -0.3822 -0.1516
0.4828 -0.3899 -0.1541
0.4797 -0.3923 -0.1538
0.4780 -0.3958 -0.1541
0.4734 -0.3969 -0.1532
0.4680 -0.3974 -0.1519
0.4692 -0.4033 -0.1535
0.4674 -0.4068 -0.1538
0.4578 -0.4034 -0.1507
0.4652 -0.4151 -0.1550
0.4535 -0.4096 -0.1510
0.4580 -0.4188 -0.1541
0.4429 -0.4100 -0.1485
0.4445 -0.4166 -0.1504
0.4412 -0.4186 -0.1501
0.4414 -0.4240 -0.1513
0.4429 -0.4307 -0.1532
0.4382 -0.4314 -0.1522
0.4349 -0.4334 -0.1519
0.4242 -0.4279 -0.1482
0.4222 -0.4312 -0.1485
0.4189 -0.4331 -0.1482
0.4097 -0.4288 -0.1451
0.4051 -0.4292 -0.1442
0.4083 -0.4379 -0.1470
0.4056 -0.4404 -0.1470
0.4003 -0.4401 -0.1458
0.3957 -0.4404 -0.1448
0.3924 -0.4421 -0.1445
0.3890 -0.4438 -0.1442
0.3850 -0.4447 -0.1436
0.3841 -0.4493 -0.1445
0.3795 -0.4494 -0.1436
0.3786 -0.4539 -0.1445
0.3800 -0.4614 -0.1467
0.3730 -0.4586 -0.1445
0.3702 -0.4608 -0.1445
0.3691 -0.4653 -0.1454
0.3610 -0.4608 -0.1427
0.3634 -0.4698 -0.1454
0.3639 -0.4766 -0.1473
0.3604 -0.4781 -0.1470
0.3552 -0.4772 -0.1458
0.3529 -0.4801 -0.1461
0.3560 -0.4908 -0.1495
0.3492 -0.4875 -0.1473
0.3456 -0.4889 -0.1470
0.3421 -0.4902 -0.1467
0.3374 -0.4900 -0.1458
0.3328 -0.4897 -0.1448
0.3351 -0.4996 -0.1479
0.3367 -0.5088 -0.1507
0.3424 -0.5244 -0.1559
0.3320 -0.5153 -0.1516
0.3319 -0.5221 -0.1535
0.3307 -0.5274 -0.1547
0.3289 -0.5319 -0.1556
0.3257 -0.5339 -0.1556
0.3229 -0.5367 -0.1559
0.3191 -0.5378 -0.1556
0.3153 -0.5389 -0.1553
0.3077 -0.5334 -0.1525
0.3063 -0.5386 -0.1538
0.3030 -0.5405 -0.1538
0.2979 -0.5390 -0.1525
0.2946 -0.5408 -0.1525
0.2890 -0.5384 -0.1510
0.2839 -0.5368 -0.1498
0.2797 -0.5369 -0.1491
0.2734 -0.5326 -0.1470
0.2689 -0.5318 -0.1461
0.2643 -0.5308 -0.1451
0.2602 -0.5307 -0.1445
0.2570 -0.5323 -0.1445
0.2545 -0.5356 -0.1451
0.2512 -0.5372 -0.1451
0.2487 -0.5404 -0.1458
0.2450 -0.5411 -0.1454
0.2424 -0.5443 -0.1461
0.2380 -0.5432 -0.1451
0.2346 -0.5446 -0.1451
0.2305 -0.5443 -0.1445
0.2301 -0.5527 -0.1470
0.2242 -0.5480 -0.1448
0.2166 -0.5387 -0.1411
0.2126 -0.5383 -0.1405
0.2083 -0.5369 -0.1396
0.2019 -0.5302 -0.1368
0.1960 -0.5243 -0.1344
0.1983 -0.5407 -0.1396
0.1953 -0.5428 -0.1399
1.1501 -3.3442 -1.0987
1.1426 -3.3899 -1.1119
1.1191 -3.3888 -1.1091
1.0924 -3.3775 -1.1030
1.0726 -3.3868 -1.1039
1.0458 -3.3742 -1.0974
1.0235 -3.3751 -1.0956
1.0068 -3.3950 -1.1002
0.9830 -3.3911 -1.0968
0.9695 -3.4227 -1.1055
0.9386 -3.3928 -1.0934
0.9180 -3.3994 -1.0937
0.8964 -3.4022 -1.0928
0.8745 -3.4040 -1.0916
0.8534 -3.4084 -1.0913
0.8318 -3.4108 -1.0903
0.8098 -3.4112 -1.0888
0.7888 -3.4161 -1.0888
0.7662 -3.4134 -1.0863
0.7452 -3.4181 -1.0863
0.7234 -3.4189 -1.0851
0.7019 -3.4204 -1.0842
0.6798 -3.4191 -1.0823
0.6588 -3.4232 -1.0823
0.6402 -3.4403 -1.0867
0.6150 -3.4216 -1.0793
0.5968 -3.4413 -1.0845
0.6055 -3.6241 -1.1434
0.5920 -3.6822 -1.1612
0.5722 -3.7037 -1.1671
0.5457 -3.6817 -1.1588
0.4981 -3.5088 -1.1011
0.4704 -3.4656 -1.0860
0.4463 -3.4468 -1.0789
0.4241 -3.4409 -1.0762
0.4030 -3.4435 -1.0762
0.3816 -3.4440 -1.0756
0.3603 -3.4444 -1.0749
0.3395 -3.4503 -1.0762
0.3185 -3.4542 -1.0768
0.2965 -3.4466 -1.0737
0.2759 -3.4560 -1.0762
0.2558 -3.4718 -1.0808
0.2348 -3.4781 -1.0823
0.2142 -3.4927 -1.0867
0.1926 -3.4902 -1.0854
0.1704 -3.4761 -1.0805
0.1485 -3.4619 -1.0756
0.1269 -3.4551 -1.0731
0.1057 -3.4530 -1.0722
0.0846 -3.4583 -1.0737
0.0634 -3.4616 -1.0746
0.0421 -3.4601 -1.0740
0.0210 -3.4726 -1.0780
-0.0003 -3.4803 -1.0805
-0.0217 -3.4812 -1.0808
-0.0431 -3.4829 -1.0814
-0.0647 -3.4940 -1.0851
-0.0881 -3.5734 -1.1110
-0.1151 -3.7354 -1.1637
-0.1381 -3.7374 -1.1646
-0.1611 -3.7384 -1.1652
-0.1814 -3.6842 -1.1480
-0.1933 -3.4911 -1.0857
-0.2146 -3.4870 -1.0848
-0.2357 -3.4818 -1.0836
-0.2577 -3.4889 -1.0863
-0.2797 -3.4948 -1.0888
-0.3022 -3.5053 -1.0928
-0.3248 -3.5148 -1.0965
-0.3461 -3.5108 -1.0959
-0.3689 -3.5200 -1.0996
-0.3916 -3.5281 -1.1030
-0.4158 -3.5473 -1.1101
-0.4392 -3.5579 -1.1144
-0.4618 -3.5608 -1.1162
-0.4876 -3.5871 -1.1258
-0.5101 -3.5879 -1.1270
-0.5365 -3.6138 -1.1366
-0.5643 -3.6471 -1.1486
-0.5928 -3.6812 -1.1609
-0.6216 -3.7150 -1.1733
-0.9354 -5.3831 -1.7231
-0.9692 -5.3820 -1.7246
-1.0000 -5.3638 -1.7206
-1.0318 -5.3519 -1.7187
-1.0547 -5.2961 -1.7024
-0.9242 -4.4975 -1.4405
-1.1895 -3.9192 -1.2799
-0.1798 -0.5260 -0.1331
-0.1837 -0.5267 -0.1337
-0.1901 -0.5345 -0.1368
-0.1970 -0.5432 -0.1402
-0.2003 -0.5420 -0.1402
-0.2158 -0.5727 -0.1513
-0.2162 -0.5634 -0.1485
-0.2179 -0.5577 -0.1470
-0.2227 -0.5598 -0.1482
-0.2258 -0.5576 -0.1479
-0.2267 -0.5500 -0.1458
-0.2301 -0.5486 -0.1458
-0.2342 -0.5490 -0.1464
-0.2349 -0.5414 -0.1442
-0.2378 -0.5391 -0.1439
-0.2407 -0.5368 -0.1436
-0.2428 -0.5327 -0.1427
-0.2461 -0.5312 -0.1427
-0.2485 -0.5279 -0.1421
-0.2472 -0.5170 -0.1387
-0.2521 -0.5189 -0.1399
-0.2578 -0.5224 -0.1418
-0.2644 -0.5276 -0.1442
-0.2707 -0.5319 -0.1464
-0.2787 -0.5395 -0.1498
-0.2807 -0.5353 -0.1488
-0.2876 -0.5403 -0.1513
-0.2900 -0.5368 -0.1507
-0.2960 -0.5400 -0.1525
-0.3012 -0.5415 -0.1538
-0.3040 -0.5388 -0.1535
-0.2950 -0.5155 -0.1454
-0.2891 -0.4981 -0.1396
-0.2989 -0.5078 -0.1439
-0.2883 -0.4831 -0.1353
-0.2893 -0.4781 -0.1340
-0.2997 -0.4884 -0.1387
-0.3047 -0.4898 -0.1399
-0.2924 -0.4638 -0.1307
-0.2877 -0.4442 -0.1245
-0.3355 -0.5108 -0.1510
-0.3238 -0.4865 -0.1424
-0.3257 -0.4830 -0.1418
-0.3217 -0.4708 -0.1377
-0.3202 -0.4625 -0.1353
-0.3428 -0.4886 -0.1464
-0.3535 -0.4973 -0.1507
-0.3488 -0.4843 -0.1464
-0.3478 -0.4768 -0.1442
-0.3422 -0.4632 -0.1396
-0.3399 -0.4542 -0.1368
-0.3392 -0.4476 -0.1350
-0.3443 -0.4485 -0.1362
-0.3499 -0.4502 -0.1377
-0.3621 -0.4599 -0.1427
-0.3560 -0.4466 -0.1381
-0.3576 -0.4429 -0.1374
-0.3549 -0.4341 -0.1347
-0.3533 -0.4268 -0.1325
-0.3577 -0.4268 -0.1334
-0.3474 -0.4094 -0.1270
-0.3573 -0.4159 -0.1307
-0.3530 -0.4058 -0.1273
-0.3731 -0.4236 -0.1359
-0.3675 -0.4121 -0.1319
-0.3783 -0.4190 -0.1359
-0.3866 -0.4229 -0.1387
-0.3815 -0.4122 -0.1350
-0.3872 -0.4133 -0.1365
-0.3976 -0.4192 -0.1402
-0.3883 -0.4044 -0.1347
-0.3974 -0.4088 -0.1377
-0.3946 -0.4010 -0.1353
-0.3957 -0.3972 -0.1347
-0.4008 -0.3974 -0.1359
-0.4046 -0.3963 -0.1365
-0.4050 -0.3918 -0.1356
-0.4170 -0.3985 -0.1399
-0.4056 -0.3829 -0.1337
-0.4107 -0.3830 -0.1350
-0.4278 -0.3940 -0.1414
-0.4295 -0.3907 -0.1411
-0.4035 -0.3627 -0.1288
-0.4271 -0.3791 -0.1381
-0.4338 -0.3803 -0.1399
-0.4267 -0.3695 -0.1359
-0.4203 -0.3595 -0.1322
-0.4363 -0.3685 -0.1381
-0.4408 -0.3677 -0.1390
-0.4445 -0.3662 -0.1396
-0.4356 -0.3545 -0.1350
-0.4385 -0.3524 -0.1353
-0.4370 -0.3467 -0.1337
-0.4271 -0.3347 -0.1288
-0.4465 -0.3454 -0.1359
-0.4213 -0.3219 -0.1248
-0.4408 -0.3325 -0.1319
-0.4543 -0.3382 -0.1365
-0.4464 -0.3282 -0.1325
-0.4368 -0.3171 -0.1279
-0.4504 -0.3227 -0.1325
-0.4547 -0.3215 -0.1334
-0.4512 -0.3149 -0.1313
-0.4460 -0.3073 -0.1285
-0.4463 -0.3035 -0.1279
-0.4490 -0.3013 -0.1282
-0.4437 -0.2938 -0.1254
-0.4574 -0.2989 -0.1300
-0.4600 -0.2966 -0.1303
-0.4675 -0.2973 -0.1325
-0.4572 -0.2869 -0.1279
-0.4638 -0.2871 -0.1297
-0.4534 -0.2768 -0.1251
-0.4820 -0.2901 -0.1353
-0.4903 -0.2910 -0.1377
-0.5077 -0.2971 -0.1436
-0.5095 -0.2940 -0.1436
-0.5204 -0.2960 -0.1470
-0.5239 -0.2938 -0.1476
-0.5123 -0.2832 -0.1427
-0.5074 -0.2764 -0.1402
-0.5175 -0.2778 -0.1433
-0.5074 -0.2684 -0.1390
-0.4761 -0.2482 -0.1270
-0.4793 -0.2462 -0.1276
-11.4154 -5.7407 -4.0924
-0.4874 -0.2428 -0.1294
-11.4970 -5.6060 -4.0967
-0.4972 -0.2401 -0.1319
-0.4875 -0.2317 -0.1279
-0.4880 -0.2284 -0.1276
-0.4756 -0.2190 -0.1226
-0.4699 -0.2130 -0.1202
-0.4839 -0.2121 -0.1242
-0.4983 -0.2148 -0.1288
-0.5035 -0.2097 -0.1297
-0.4946 -0.1990 -0.1257
-0.4863 -0.1888 -0.1220
-0.5123 -0.1845 -0.1294
-0.5388 -0.1865 -0.1377
-0.5400 -0.1832 -0.1377
-0.5456 -0.1814 -0.1393
-0.5467 -0.1780 -0.1393
-0.5369 -0.1712 -0.1356
-0.5179 -0.1617 -0.1288
-0.5353 -0.1635 -0.1344
-0.5162 -0.1543 -0.1276
-0.5226 -0.1527 -0.1294
-0.5410 -0.1508 -0.1350
-0.5465 -0.1487 -0.1365
-0.5658 -0.1502 -0.1427
-0.5538 -0.1434 -0.1384
-0.5796 -0.1463 -0.1467
-0.5223 -0.1285 -0.1273
-0.5126 -0.0966 -0.1220
-0.5385 -0.0979 -0.1303
-0.5532 -0.0971 -0.1350
-0.5219 -0.0267 -0.1223
-0.5354 -0.0241 -0.1266
-0.5498 -0.0213 -0.1313
-0.5528 -0.0180 -0.1322
-0.5548 -0.0147 -0.1328
-0.5567 -0.0113 -0.1334
-0.5606 -0.0080 -0.1347
-0.5587 -0.0045 -0.1340
-0.5740 0.0025 -0.1390
-0.5844 0.0061 -0.1424
-0.5881 -0.0286 -0.1514
-0.5476 -0.0232 -0.1377
-0.5469 -0.0164 -0.1373
-0.5527 -0.0132 -0.1392
-0.5831 -0.0104 -0.1495
-0.5898 -0.0033 -0.1517
-12.4425 1.6675 -4.1897
-12.2444 1.7175 -4.1257
-12.1380 1.7786 -4.0931
-0.5922 0.0918 -0.1549
-12.0731 1.9207 -4.0787
-12.0723 1.9966 -4.0825
-12.0981 2.0773 -4.0956
-12.1458 2.1622 -4.1164
-12.1547 2.2408 -4.1241
-12.1686 2.3207 -4.1337
-12.1662 2.3977 -4.1379
-0.5264 0.1186 -0.1348
-0.5043 0.2465 -0.1421
-0.5003 0.2483 -0.1412
-0.5137 0.2955 -0.1527
-7.5456 4.3804 -2.8974
-7.4974 4.4141 -2.8891
-7.4392 4.4416 -2.8769
-0.5152 0.3134 -0.1562
-7.3042 4.4835 -2.8453
-0.5025 0.3142 -0.1527
-0.4821 0.3057 -0.1453
-0.4922 0.3163 -0.1501
-7.1403 4.6279 -2.8245
-7.0936 4.6596 -2.8171
-7.0893 4.7194 -2.8271
-7.0869 4.7808 -2.8379
-7.0191 4.7980 -2.8223
-0.5067 0.3525 -0.1610
-6.9861 4.9023 -2.8331
-0.4931 0.3521 -0.1572
-0.4763 0.3446 -0.1511
-0.4902 0.3592 -0.1578
-0.4705 0.3493 -0.1504
-0.4609 0.3510 -0.1482
-2.7376 2.1031 -1.1178
-2.7299 2.1239 -1.1200
-2.6453 2.0844 -1.0893
-2.5658 2.0474 -1.0606
-2.5532 2.0631 -1.0606
-2.5375 2.0763 -1.0593
-2.5094 2.0792 -1.0526
-2.4596 2.0635 -1.0362
-2.4339 2.0675 -1.0305
-2.4355 2.0948 -1.0369
-2.4326 2.1184 -1.0414
-2.4089 2.1239 -1.0366
-2.3895 2.1329 -1.0337
-0.4052 0.3677 -0.1373
-2.3547 2.1544 -1.0299
-2.3491 2.1759 -1.0334
-2.3447 2.1987 -1.0375
-0.3967 0.3782 -0.1377
-0.3923 0.3786 -0.1367
-0.3900 0.3810 -0.1367
-2.2867 2.2523 -1.0359
-2.2862 2.2796 -1.0423
-2.2742 2.2956 -1.0433
-2.2568 2.3061 -1.0417
-0.3650 0.3792 -0.1303
-0.3816 0.4013 -0.1396
-0.3973 0.4229 -0.1485
-0.3792 0.4087 -0.1408
-0.3908 0.4264 -0.1479
-0.3850 0.4253 -0.1463
-0.3552 0.3973 -0.1325
-0.3760 0.4257 -0.1444
-0.3528 0.4045 -0.1338
-0.3670 0.4260 -0.1424
-0.3583 0.4210 -0.1392
-0.3563 0.4240 -0.1396
-0.3579 0.4312 -0.1418
-0.3517 0.4290 -0.1399
-0.3502 0.4326 -0.1405
-0.3434 0.4296 -0.1383
-0.3360 0.4258 -0.1357
-0.3498 0.4487 -0.1447
-0.3401 0.4419 -0.1408
-0.3304 0.4349 -0.1370
-0.3186 0.4248 -0.1319
-0.3172 0.4283 -0.1325
-2.0234 3.3643 -1.2777
-1.9747 3.3294 -1.2591
-1.9423 3.3210 -1.2511
-1.9171 3.3246 -1.2479
-1.8883 3.3215 -1.2422
-1.8669 3.3314 -1.2416
-1.8556 3.3593 -1.2479
-1.8309 3.3632 -1.2451
-1.8053 3.3652 -1.2416
-1.7788 3.3653 -1.2374
-1.7582 3.3762 -1.2374
-1.7374 3.3869 -1.2374
-1.7157 3.3958 -1.2368
-1.6936 3.4037 -1.2358
-1.6735 3.4157 -1.2364
-1.6484 3.4174 -1.2332
-1.6237 3.4197 -1.2304
-1.6051 3.4348 -1.2323
-1.5825 3.4411 -1.2310
-1.5570 3.4413 -1.2275
-1.5405 3.4612 -1.2313
-1.5173 3.4662 -1.2297
-1.4998 3.4842 -1.2329
-1.4798 3.4968 -1.2342
-1.4536 3.4944 -1.2300
-1.4311 3.5007 -1.2291
-1.4085 3.5067 -1.2281
-1.3831 3.5056 -1.2246
-1.3582 3.5052 -1.2214
-1.3350 3.5090 -1.2198
-1.3144 3.5198 -1.2208
-1.2938 3.5305 -1.2217
-1.2746 3.5455 -1.2243
-1.2538 3.5559 -1.2252
-1.2326 3.5653 -1.2259
-1.2107 3.5728 -1.2259
-1.1878 3.5775 -1.2249
-1.1659 3.5847 -1.2249
-1.1430 3.5891 -1.2240
-1.1178 3.5861 -1.2204
-1.0939 3.5866 -1.2182
-1.0721 3.5941 -1.2185
-1.0506 3.6024 -1.2192
-1.0269 3.6033 -1.2172
-1.0048 3.6096 -1.2172
-0.9819 3.6129 -1.2163
-0.9599 3.6198 -1.2166
-0.9398 3.6339 -1.2195
-0.9184 3.6433 -1.2208
-0.8963 3.6497 -1.2211
-0.8659 3.6220 -1.2096
-0.8435 3.6263 -1.2093
-0.8210 3.6305 -1.2089
-0.7995 3.6392 -1.2102
-0.7794 3.6542 -1.2137
-0.7585 3.6663 -1.2163
-0.7367 3.6746 -1.2176
-0.7145 3.6810 -1.2182
-0.6924 3.6881 -1.2192
-0.6666 3.6745 -1.2131
-0.6437 3.6767 -1.2125
-0.6216 3.6834 -1.2134
-0.5999 3.6927 -1.2153
-0.5769 3.6945 -1.2147
-0.5534 3.6923 -1.2128
-0.5306 3.6947 -1.2125
-0.5079 3.6979 -1.2125
-0.4846 3.6962 -1.2109
-0.4620 3.7001 -1.2112
-0.4402 3.7104 -1.2137
-0.4175 3.7139 -1.2141
-0.3947 3.7164 -1.2141
-0.3721 3.7207 -1.2147
-0.3496 3.7267 -1.2160
-0.3263 3.7240 -1.2144
-0.3042 3.7344 -1.2172
-0.2801 3.7211 -1.2121
-0.2572 3.7209 -1.2115
-0.2358 3.7460 -1.2195
-0.2128 3.7465 -1.2192
-0.1894 3.7411 -1.2169
-0.1661 3.7327 -1.2137
-0.1430 3.7299 -1.2125
-0.1201 3.7297 -1.2121
-0.0971 3.7285 -1.2115
-0.0742 3.7271 -1.2109
-0.0515 3.7341 -1.2131
-0.0285 3.7315 -1.2121
-0.0056 3.7231 -1.2093
0.0172 3.7221 -1.2089
0.0400 3.7153 -1.2067
0.0631 3.7302 -1.2118
0.0860 3.7316 -1.2125
0.1086 3.7206 -1.2089
0.1316 3.7265 -1.2112
0.1549 3.7351 -1.2144
0.1780 3.7388 -1.2160
0.2002 3.7225 -1.2109
0.2229 3.7202 -1.2105
0.2463 3.7264 -1.2131
0.2694 3.7286 -1.2144
0.2922 3.7259 -1.2141
0.3155 3.7297 -1.2160
0.3389 3.7334 -1.2179
0.3613 3.7256 -1.2160
0.3834 3.7167 -1.2137
0.4059 3.7114 -1.2128
0.4287 3.7089 -1.2128
0.4518 3.7090 -1.2137
0.4750 3.7099 -1.2150
0.4983 3.7107 -1.2163
0.5212 3.7085 -1.2166
0.5410 3.6855 -1.2099
0.5631 3.6784 -1.2086
0.5896 3.7001 -1.2172
0.6117 3.6927 -1.2160
0.6347 3.6907 -1.2166
0.6545 3.6709 -1.2112
0.6768 3.6659 -1.2109
0.6997 3.6635 -1.2115
0.7225 3.6610 -1.2121
0.7457 3.6603 -1.2134
0.7648 3.6398 -1.2080
0.7908 3.6518 -1.2137
0.8150 3.6552 -1.2166
0.8374 3.6501 -1.2166
0.8626 3.6569 -1.2208
0.8853 3.6524 -1.2211
0.9074 3.6460 -1.2208
0.9284 3.6349 -1.2188
0.9514 3.6319 -1.2198
0.9741 3.6278 -1.2204
0.9981 3.6281 -1.2227
1.0194 3.6183 -1.2214
1.0431 3.6174 -1.2233
1.0669 3.6164 -1.2252
1.0926 3.6216 -1.2294
1.1187 3.6275 -1.2339
1.1401 3.6178 -1.2329
1.1585 3.5991 -1.2288
1.1773 3.5820 -1.2252
1.1981 3.5711 -1.2240
1.2243 3.5762 -1.2284
1.2484 3.5749 -1.2307
1.2712 3.5699 -1.2316
1.2970 3.5727 -1.2355
1.3189 3.5647 -1.2355
1.3424 3.5609 -1.2371
1.3639 3.5517 -1.2368
1.3798 3.5283 -1.2313
1.4025 3.5224 -1.2323
1.4162 3.4944 -1.2252
1.4423 3.4971 -1.2294
1.4711 3.5056 -1.2358
1.4937 3.4991 -1.2368
1.5189 3.4986 -1.2400
1.5392 3.4866 -1.2390
1.5505 3.4546 -1.2307
1.5862 3.4769 -1.2425
1.6485 3.5557 -1.2754
1.6005 3.3972 -1.2201
0.2446 0.5084 -0.1431
0.2403 0.4915 -0.1373
0.2521 0.5079 -0.1440
0.2527 0.5013 -0.1421
0.2601 0.5082 -0.1453
0.2627 0.5057 -0.1450
0.2649 0.5024 -0.1444
0.2676 0.4999 -0.1440
0.2693 0.4958 -0.1431
0.2723 0.4941 -0.1431
0.2763 0.4941 -0.1437
0.2798 0.4932 -0.1440
0.2847 0.4948 -0.1453
0.2868 0.4914 -0.1447
0.2878 0.4864 -0.1434
0.2932 0.4886 -0.1450
0.2953 0.4852 -0.1444
0.2967 0.4810 -0.1434
0.2982 0.4767 -0.1424
0.3036 0.4789 -0.1440
0.3066 0.4770 -0.1440
0.3100 0.4759 -0.1444
0.3129 0.4740 -0.1444
0.3174 0.4745 -0.1453
0.3198 0.4717 -0.1450
0.3216 0.4682 -0.1444
0.3234 0.4646 -0.1437
0.3273 0.4642 -0.1444
0.3329 0.4660 -0.1460
0.3369 0.4655 -0.1466
0.3425 0.4673 -0.1482
0.3409 0.4591 -0.1456
0.3414 0.4539 -0.1444
0.3447 0.4526 -0.1447
0.3441 0.4460 -0.1428
0.3468 0.4438 -0.1428
0.3542 0.4477 -0.1453
0.3552 0.4433 -0.1444
0.3585 0.4418 -0.1447
0.3594 0.4374 -0.1437
0.3614 0.4345 -0.1434
2.1012 2.5046 -1.0561
2.1092 2.4830 -1.0522
2.1176 2.4621 -1.0487
2.1308 2.4469 -1.0478
2.1558 2.4452 -1.0529
0.3898 0.4350 -0.1498
0.3944 0.4347 -0.1508
0.4015 0.4372 -0.1530
0.4061 0.4368 -0.1540
0.4075 0.4329 -0.1533
2.3004 2.4233 -1.0804
0.4101 0.4251 -0.1520
0.4081 0.4179 -0.1498
0.4094 0.4140 -0.1492
2.3926 2.3997 -1.0964
0.4110 0.4056 -0.1476
2.4463 2.3940 -1.1079
0.4160 0.4005 -0.1476
0.4267 0.4058 -0.1514
0.4202 0.3947 -0.1472
0.4247 0.3941 -0.1482
0.4236 0.3883 -0.1466
0.4246 0.3844 -0.1460
0.4234 0.3786 -0.1444
0.4243 0.3748 -0.1437
0.4266 0.3721 -0.1437
0.4296 0.3701 -0.1440
0.4297 0.3656 -0.1431
0.4312 0.3624 -0.1428
0.4312 0.3579 -0.1418
0.4356 0.3571 -0.1428
0.4415 0.3574 -0.1444
0.4436 0.3547 -0.1444
0.4488 0.3543 -0.1456
0.4547 0.3545 -0.1472
0.4516 0.3476 -0.1450
0.4545 0.3454 -0.1453
0.4543 0.3409 -0.1444
0.4541 0.3364 -0.1434
0.4592 0.3359 -0.1447
0.4559 0.3291 -0.1424
0.4564 0.3252 -0.1418
0.4615 0.3246 -0.1431
0.4627 0.3212 -0.1428
0.4709 0.3227 -0.1453
0.4721 0.3193 -0.1450
0.4701 0.3137 -0.1434
0.4688 0.3087 -0.1421
0.4866 0.3162 -0.1485
0.4782 0.3065 -0.1444
0.4936 0.3122 -0.1498
0.4915 0.3067 -0.1482
0.4934 0.3037 -0.1482
0.4952 0.3006 -0.1482
0.4922 0.2947 -0.1463
0.4940 0.2916 -0.1463
0.4974 0.2896 -0.1469
0.5008 0.2875 -0.1476
0.5116 0.2895 -0.1511
0.5076 0.2831 -0.1488
0.5085 0.2796 -0.1485
0.5136 0.2782 -0.1498
0.5169 0.2760 -0.1504
0.5195 0.2733 -0.1508
0.5245 0.2718 -0.1520
0.5337 0.2725 -0.1549
0.5337 0.2683 -0.1543
0.5336 0.2642 -0.1536
0.5344 0.2605 -0.1533
0.5266 0.2527 -0.1498
0.5358 0.2531 -0.1527
0.5340 0.2482 -0.1514
0.5320 0.2434 -0.1501
0.5370 0.2417 -0.1514
0.5393 0.2388 -0.1517
0.5434 0.2366 -0.1527
0.5483 0.2347 -0.1540
0.5480 0.2306 -0.1533
0.5494 0.2273 -0.1533
0.5437 0.2210 -0.1508
0.5407 0.2159 -0.1492
0.5464 0.2143 -0.1508
0.5512 0.2123 -0.1520
0.5508 0.2083 -0.1514
0.5547 0.2059 -0.1524
0.5497 0.2002 -0.1501
0.5590 0.1997 -0.1530
0.5745 0.2013 -0.1581
0.5802 0.1993 -0.1597
0.5814 0.1958 -0.1597
0.5772 0.1904 -0.1578
0.5837 0.1886 -0.1597
0.5714 0.1807 -0.1549
0.5761 0.1784 -0.1562
0.5699 0.1726 -0.1536
0.5646 0.1672 -0.1514
0.5829 0.1688 -0.1575
0.5739 0.1623 -0.1540
0.5758 0.1591 -0.1543
0.5786 0.1560 -0.1549
0.5759 0.1515 -0.1536
0.5695 0.1461 -0.1511
0.5740 0.1435 -0.1524
0.5749 0.1400 -0.1524
0.5785 0.1371 -0.1533
0.5812 0.1340 -0.1540
0.5875 0.1317 -0.1559
0.5818 0.1266 -0.1536
0.5780 0.1221 -0.1520
0.5796 0.1187 -0.1524
0.5766 0.1144 -0.1511
0.5764 0.1107 -0.1508
0.5715 0.1061 -0.1488
0.5749 0.1031 -0.1498
0.5821 0.1007 -0.1520
0.5761 0.0960 -0.1498
0.5683 0.0911 -0.1469
0.5754 0.0887 -0.1492
0.5816 0.0860 -0.1511
0.5961 0.0844 -0.1559
0.5957 0.0807 -0.1556
0.6065 0.0784 -0.1591
0.5985 0.0736 -0.1562
0.5980 0.0698 -0.1559
0.6079 0.0672 -0.1591
0.6092 0.0635 -0.1594
0.6105 0.0599 -0.1597
0.6175 0.0568 -0.1620
0.6150 0.0527 -0.1610
0.6134 0.0488 -0.1604
0.6071 0.0445 -0.1581
0.5979 0.0402 -0.1549
0.6000 0.0366 -0.1556
0.6040 0.0331 -0.1568
0.6033 0.0294 -0.1565
0.6034 0.0257 -0.1565
0.6131 0.0223 -0.1597
0.6085 0.0184 -0.1581
0.6104 0.0147 -0.1588
0.6191 0.0112 -0.1616
0.6115 0.0073 -0.1591
0.6021 0.0034 -0.1559
0.6002 -0.0003 -0.1552
0.6030 -0.0040 -0.1562
0.6049 -0.0077 -0.1568
0.6096 -0.0115 -0.1584
0.6095 -0.0152 -0.1584
0.6094 -0.0189 -0.1584
0.6055 -0.0225 -0.1572
0.6044 -0.0262 -0.1568
0.6051 -0.0300 -0.1572
0.5955 -0.0332 -0.1540
0.6066 -0.0375 -0.1578
0.6149 -0.0418 -0.1607
0.6184 -0.0458 -0.1620
0.6115 -0.0491 -0.1597
0.6112 -0.0529 -0.1597
0.6099 -0.0565 -0.1594
0.6086 -0.0602 -0.1591
0.6026 -0.0633 -0.1572
0.5993 -0.0667 -0.1562
0.5999 -0.0705 -0.1565
0.6004 -0.0743 -0.1568
0.5971 -0.0776 -0.1559
0.5985 -0.0815 -0.1565
0.5980 -0.0852 -0.1565
0.5993 -0.0891 -0.1572
0.6015 -0.0932 -0.1581
0.5972 -0.0963 -0.1568
0.5985 -0.1003 -0.1575
0.6063 -0.1054 -0.1604
0.6065 -0.1093 -0.1607
0.6133 -0.1144 -0.1632
0.6163 -0.1189 -0.1645
0.6044 -0.1205 -0.1607
0.6185 -0.1272 -0.1658
0.6103 -0.1294 -0.1632
0.6058 -0.1324 -0.1620
0.6022 -0.1355 -0.1610
0.5968 -0.1381 -0.1594
0.5940 -0.1413 -0.1588
0.5950 -0.1454 -0.1594
0.5987 -0.1502 -0.1610
0.6033 -0.1553 -0.1629
0.5968 -0.1575 -0.1610
0.5968 -0.1614 -0.1613
0.5802 -0.1608 -0.1559
0.5820 -0.1652 -0.1568
0.5855 -0.1700 -0.1584
0.5844 -0.1736 -0.1584
0.5861 -0.1780 -0.1594
0.5841 -0.1813 -0.1591
0.5838 -0.1852 -0.1594
0.5809 -0.1882 -0.1588
0.5770 -0.1909 -0.1578
0.5741 -0.1938 -0.1572
0.5764 -0.1986 -0.1584
0.5698 -0.2002 -0.1565
0.5713 -0.2047 -0.1575
0.5665 -0.2069 -0.1562
0.5696 -0.2120 -0.1578
0.5727 -0.2171 -0.1594
0.5687 -0.2196 -0.1584
0.5700 -0.2242 -0.1594
0.5783 -0.2315 -0.1629
0.5716 -0.2329 -0.1610
0.5711 -0.2368 -0.1613
0.5687 -0.2399 -0.1610
0.5638 -0.2419 -0.1597
0.5570 -0.2431 -0.1578
0.5529 -0.2454 -0.1568
0.5627 -0.2538 -0.1610
0.5473 -0.2510 -0.1559
0.5466 -0.2547 -0.1562
0.5485 -0.2597 -0.1575
0.5460 -0.2626 -0.1572
0.5427 -0.2651 -0.1565
0.5393 -0.2676 -0.1559
0.5385 -0.2714 -0.1562
0.5352 -0.2738 -0.1556
0.5360 -0.2784 -0.1565
0.5326 -0.2808 -0.1559
0.5367 -0.2872 -0.1581
0.5325 -0.2891 -0.1572
0.5390 -0.2969 -0.1604
0.5231 -0.2924 -0.1549
0.5155 -0.2923 -0.1527
0.5137 -0.2955 -0.1527
0.5037 -0.2939 -0.1495
0.5043 -0.2984 -0.1504
0.5049 -0.3030 -0.1514
0.5063 -0.3080 -0.1527
0.5012 -0.3091 -0.1514
0.5017 -0.3137 -0.1524
0.5037 -0.3193 -0.1540
0.5042 -0.3239 -0.1549
0.5022 -0.3270 -0.1549
0.5017 -0.3311 -0.1556
0.5100 -0.3410 -0.1597
0.5047 -0.3420 -0.1584
0.4995 -0.3430 -0.1572
0.4841 -0.3369 -0.1517
0.4867 -0.3431 -0.1536
0.4846 -0.3461 -0.1536
0.4855 -0.3513 -0.1549
0.4765 -0.3492 -0.1520
0.4781 -0.3549 -0.1536
0.4729 -0.3556 -0.1524
0.4677 -0.3562 -0.1511
0.4663 -0.3596 -0.1514
0.4640 -0.3625 -0.1514
0.4588 -0.3630 -0.1501
0.4566 -0.3658 -0.1501
0.4573 -0.3710 -0.1514
0.4565 -0.3750 -0.1520
0.4593 -0.3820 -0.1543
0.4518 -0.3805 -0.1520
0.4466 -0.3809 -0.1508
0.4428 -0.3823 -0.1501
0.4505 -0.3938 -0.1546
0.4473 -0.3959 -0.1543
0.4477 -0.4012 -0.1556
0.4375 -0.3969 -0.1520
0.4428 -0.4066 -0.1556
0.4389 -0.4080 -0.1549
0.4301 -0.4049 -0.1520
0.4311 -0.4108 -0.1536
0.4251 -0.4101 -0.1520
0.4213 -0.4114 -0.1514
0.4174 -0.4127 -0.1508
0.4115 -0.4119 -0.1492
0.4023 -0.4077 -0.1460
0.4037 -0.4142 -0.1479
0.3972 -0.4126 -0.1460
0.4006 -0.4212 -0.1488
0.4006 -0.4264 -0.1501
0.3870 -0.4170 -0.1447
0.3973 -0.4334 -0.1511
0.3927 -0.4337 -0.1501
0.3856 -0.4311 -0.1479
0.3817 -0.4321 -0.1472
0.3784 -0.4337 -0.1469
0.3745 -0.4346 -0.1463
0.3730 -0.4383 -0.1469
0.3703 -0.4406 -0.1469
0.3688 -0.4443 -0.1476
0.3661 -0.4466 -0.1476
0.3652 -0.4510 -0.1485
0.3612 -0.4518 -0.1479
0.3519 -0.4458 -0.1444
0.3469 -0.4450 -0.1431
0.3459 -0.4494 -0.1440
0.3425 -0.4507 -0.1437
0.3386 -0.4513 -0.1431
0.3426 -0.4625 -0.1469
0.3387 -0.4630 -0.1463
0.3391 -0.4697 -0.1482
0.3423 -0.4803 -0.1517
0.3432 -0.4878 -0.1540
0.3391 -0.4883 -0.1533
0.3264 -0.4763 -0.1476
0.3294 -0.4870 -0.1511
0.3084 -0.4622 -0.1402
0.3025 -0.4594 -0.1383
0.3043 -0.4683 -0.1412
0.3014 -0.4702 -0.1412
0.3021 -0.4776 -0.1434
0.3012 -0.4827 -0.1447
0.2982 -0.4845 -0.1447
0.2952 -0.4864 -0.1447
0.2937 -0.4906 -0.1456
0.2926 -0.4956 -0.1469
0.2905 -0.4991 -0.1476
0.2917 -0.5082 -0.1504
0.2881 -0.5092 -0.1501
0.2873 -0.5151 -0.1517
0.2837 -0.5160 -0.1514
0.2819 -0.5202 -0.1524
0.2773 -0.5194 -0.1514
0.2768 -0.5262 -0.1533
0.2740 -0.5287 -0.1536
0.2703 -0.5295 -0.1533
0.2662 -0.5295 -0.1527
0.2646 -0.5345 -0.1540
0.2555 -0.5242 -0.1495
0.2507 -0.5223 -0.1482
0.2507 -0.5307 -0.1508
0.2486 -0.5348 -0.1517
0.2469 -0.5398 -0.1530
0.2432 -0.5404 -0.1527
0.2399 -0.5419 -0.1527
0.2381 -0.5468 -0.1540
0.2351 -0.5491 -0.1543
0.2310 -0.5488 -0.1536
0.2251 -0.5441 -0.1514
0.2243 -0.5516 -0.1536
0.2159 -0.5407 -0.1492
0.2112 -0.5385 -0.1479
0.2075 -0.5389 -0.1476
0.2032 -0.5375 -0.1466
0.1996 -0.5378 -0.1463
0.1963 -0.5390 -0.1463
0.1930 -0.5402 -0.1463
0.1881 -0.5369 -0.1447
0.1857 -0.5408 -0.1456
0.1836 -0.5455 -0.1469
0.1794 -0.5439 -0.1460
0.1737 -0.5378 -0.1434
0.1701 -0.5380 -0.1431
0.1657 -0.5354 -0.1418
0.1632 -0.5391 -0.1428
0.1596 -0.5392 -0.1424
0.1563 -0.5401 -0.1424
0.1532 -0.5420 -0.1428
0.1492 -0.5402 -0.1418
0.1458 -0.5411 -0.1418
0.1420 -0.5402 -0.1412
0.1380 -0.5383 -0.1402
0.1370 -0.5483 -0.1434
0.1339 -0.5500 -0.1437
0.1307 -0.5518 -0.1440
0.1260 -0.5470 -0.1421
0.1233 -0.5506 -0.1431
0.1187 -0.5458 -0.1412
0.1152 -0.5455 -0.1408
0.1126 -0.5500 -0.1421
0.1086 -0.5478 -0.1412
0.1060 -0.5522 -0.1424
0.1035 -0.5575 -0.1440
0.0999 -0.5572 -0.1437
0.0961 -0.5559 -0.1431
0.0943 -0.5659 -0.1463
0.0914 -0.5702 -0.1476
0.0871 -0.5651 -0.1456
0.0836 -0.5656 -0.1456
0.0800 -0.5652 -0.1453
0.0757 -0.5600 -0.1434
0.0718 -0.5567 -0.1421
0.0679 -0.5534 -0.1408
0.0635 -0.5454 -0.1380
0.0621 -0.5627 -0.1437
0.0587 -0.5640 -0.1440
0.0547 -0.5587 -0.1421
0.0519 -0.5656 -0.1444
0.0444 -0.5206 -0.1290
0.0436 -0.5492 -0.1386
0.0399 -0.5457 -0.1373
0.0376 -0.5610 -0.1424
0.0342 -0.5613 -0.1424
0.0307 -0.5605 -0.1421
0.0267 -0.5503 -0.1386
0.0236 -0.5561 -0.1405
0.0213 -0.5866 -0.1508
0.0163 -0.5422 -0.1357
0.0903 -3.4699 -1.1242
0.0690 -3.4704 -1.1242
0.0061 -0.5310 -0.1319
0.0265 -3.4748 -1.1255
-0.0004 -0.5310 -0.1319
-0.0036 -0.5263 -0.1303
-0.0071 -0.5499 -0.1383
-0.0104 -0.5480 -0.1377
-0.0137 -0.5422 -0.1357
-0.0177 -0.5649 -0.1434
-0.0208 -0.5543 -0.1399
-0.0241 -0.5523 -0.1392
-0.0277 -0.5569 -0.1408
-0.0309 -0.5529 -0.1396
-0.0343 -0.5527 -0.1396
-0.0374 -0.5478 -0.1380
-0.0407 -0.5475 -0.1380
-0.0440 -0.5463 -0.1377
-0.0474 -0.5460 -0.1377
-0.0507 -0.5457 -0.1377
-0.0537 -0.5416 -0.1364
-0.0571 -0.5422 -0.1367
-0.0608 -0.5447 -0.1377
-0.0642 -0.5453 -0.1380
-0.0679 -0.5477 -0.1389
-0.0709 -0.5444 -0.1380
-0.0754 -0.5524 -0.1408
-0.0785 -0.5501 -0.1402
-0.0820 -0.5505 -0.1405
-0.0845 -0.5444 -0.1386
-0.0896 -0.5551 -0.1424
-0.0951 -0.5667 -0.1466
-0.1003 -0.5764 -0.1501
-0.0995 -0.5515 -0.1418
-0.1026 -0.5490 -0.1412
-0.1057 -0.5474 -0.1408
-0.1102 -0.5524 -0.1428
-0.1138 -0.5526 -0.1431
-0.1172 -0.5519 -0.1431
-0.1200 -0.5484 -0.1421
-0.1231 -0.5467 -0.1418
-0.1252 -0.5404 -0.1399
-0.1320 -0.5544 -0.1450
-0.1384 -0.5372 -0.1399
-0.1477 -0.5592 -0.1479
-0.1524 -0.5629 -0.1495
-0.1538 -0.5546 -0.1469
-0.1580 -0.5564 -0.1479
-0.1606 -0.5527 -0.1469
-0.1664 -0.5599 -0.1498
-0.1712 -0.5634 -0.1514
-0.1746 -0.5623 -0.1514
-0.1753 -0.5522 -0.1482
-0.1754 -0.5412 -0.1447
-0.1702 -0.5140 -0.1354
-0.1917 -0.5678 -0.1549
-0.1955 -0.5675 -0.1552
-0.1899 -0.5403 -0.1460
-0.2009 -0.5606 -0.1536
-0.2049 -0.5611 -0.1543
-0.2087 -0.5607 -0.1546
-0.2125 -0.5603 -0.1549
-0.2166 -0.5608 -0.1556
-0.2145 -0.5453 -0.1504
-0.2249 -0.5616 -0.1568
-0.2276 -0.5585 -0.1562
-0.2252 -0.5430 -0.1511
-0.2337 -0.5539 -0.1556
-0.2371 -0.5524 -0.1556
-0.2412 -0.5527 -0.1562
-0.2431 -0.5477 -0.1549
-0.2379 -0.5272 -0.1479
-0.2341 -0.5102 -0.1421
-0.2312 -0.4959 -0.1373
-0.2468 -0.5210 -0.1472
-0.2291 -0.4759 -0.1309
-0.2395 -0.4898 -0.1367
-0.2458 -0.4952 -0.1392
-0.2484 -0.4928 -0.1389
-0.2582 -0.4824 -0.1373
-0.2809 -0.5024 -0.1469
-0.2821 -0.4973 -0.1456
-0.2819 -0.4898 -0.1434
-0.2863 -0.4906 -0.1444
-0.2874 -0.4855 -0.1431
-0.2850 -0.4748 -0.1396
-0.2869 -0.4714 -0.1389
-0.2918 -0.4729 -0.1402
-0.2862 -0.4574 -0.1348
-0.2865 -0.4516 -0.1332
-0.2887 -0.4491 -0.1329
-0.3049 -0.4680 -0.1412
-0.2989 -0.4526 -0.1357
-0.3022 -0.4516 -0.1361
-0.3076 -0.4536 -0.1377
-0.3023 -0.4400 -0.1329
-0.3029 -0.4350 -0.1316
-0.3219 -0.4564 -0.1412
-0.3175 -0.4444 -0.1370
-0.3241 -0.4478 -0.1392
-0.3280 -0.4474 -0.1399
-0.3318 -0.4469 -0.1405
-0.3289 -0.4372 -0.1373
-0.3367 -0.4420 -0.1402
-0.3383 -0.4384 -0.1396
-0.3375 -0.4319 -0.1377
-0.3390 -0.4283 -0.1370
-0.3552 -0.4433 -0.1444
-0.3436 -0.4234 -0.1367
-0.3414 -0.4154 -0.1341
-0.3439 -0.4133 -0.1341
-0.3422 -0.4061 -0.1319
-0.3557 -0.4170 -0.1377
-0.3675 -0.4256 -0.1424
-0.3565 -0.4076 -0.1354
-0.3671 -0.4146 -0.1396
-0.3721 -0.4152 -0.1408
-0.3664 -0.4038 -0.1367
-0.3708 -0.4036 -0.1377
-0.3591 -0.3860 -0.1306
-0.3667 -0.3893 -0.1332
-0.3775 -0.3960 -0.1373
-0.3859 -0.3998 -0.1402
-0.3764 -0.3852 -0.1345
-0.3841 -0.3883 -0.1370
-0.3764 -0.3759 -0.1322
-0.3814 -0.3763 -0.1335
-0.3803 -0.3706 -0.1319
-0.3792 -0.3650 -0.1303
-0.3903 -0.3711 -0.1345
-0.3940 -0.3700 -0.1351
-0.3914 -0.3631 -0.1329
-0.4048 -0.3709 -0.1380
-0.3958 -0.3583 -0.1329
-0.3980 -0.3558 -0.1329
-0.3967 -0.3502 -0.1313
-0.3974 -0.3465 -0.1306
-0.4052 -0.3490 -0.1332
-0.4023 -0.3422 -0.1309
-0.4131 -0.3471 -0.1348
-0.4087 -0.3391 -0.1319
-0.4085 -0.3348 -0.1309
-0.3996 -0.3233 -0.1261
-0.4045 -0.3232 -0.1274
-10.4529 -8.2914 -4.4557
-10.4782 -8.2072 -4.4449
-0.4074 -0.3134 -0.1261
-0.4146 -0.3149 -0.1284
-0.4112 -0.3084 -0.1261
-0.4328 -0.3206 -0.1345
-0.4401 -0.3218 -0.1367
-0.4505 -0.3252 -0.1402
-0.4805 -0.3337 -0.1501
-0.4545 -0.3114 -0.1386
-0.4331 -0.2889 -0.1284
-0.4467 -0.2941 -0.1332
-0.4438 -0.2882 -0.1313
-0.4495 -0.2881 -0.1329
-0.4433 -0.2802 -0.1297
-0.4466 -0.2785 -0.1303
-0.4612 -0.2837 -0.1354
-0.4516 -0.2740 -0.1309
-0.4898 -0.2932 -0.1453
-0.4899 -0.2892 -0.1447
-0.5032 -0.2929 -0.1492
-0.5026 -0.2844 -0.1476
-0.5209 -0.2906 -0.1540
-11.5171 -6.3656 -4.3940
-0.5119 -0.2773 -0.1492
-0.4869 -0.2599 -0.1389
-0.4935 -0.2595 -0.1408
-11.4245 -5.9531 -4.3006
-11.3732 -5.8379 -4.2674
-11.3750 -5.7509 -4.2546
-11.3659 -5.6590 -4.2379
-11.4098 -5.5938 -4.2415
-11.4618 -5.5323 -4.2482
-11.5212 -5.4741 -4.2578
-11.5846 -5.4173 -4.2690
-11.6590 -5.3652 -4.2843
-0.4804 -0.2055 -0.1290
-0.4987 -0.1711 -0.1306
-0.5006 -0.1684 -0.1309
-0.4891 -0.1611 -0.1265
-0.4982 -0.1608 -0.1293
-0.5109 -0.1614 -0.1335
-0.5046 -0.1561 -0.1309
-0.5119 -0.1549 -0.1332
-0.5138 -0.1520 -0.1335
-0.5129 -0.1483 -0.1329
-0.5201 -0.1470 -0.1351
-0.5329 -0.1436 -0.1389
-0.5163 -0.1323 -0.1325
-0.5175 -0.0959 -0.1303
-0.5939 -0.0352 -0.1606
-12.3728 1.6247 -4.3201
-12.2766 1.6888 -4.2897
-12.1576 1.7485 -4.2514
-12.0552 1.8094 -4.2190
-12.0382 1.8824 -4.2170
-12.0330 1.9573 -4.2193
-12.0282 2.0324 -4.2220
-12.0657 2.1149 -4.2398
-12.0999 2.1975 -4.2566
-12.1047 2.2752 -4.2632
-12.0229 2.3363 -4.2391
-0.5469 0.2766 -0.1669
-0.5393 0.2770 -0.1646
-0.5359 0.3050 -0.1682
-7.6847 4.4347 -3.0578
-7.5661 4.4284 -3.0208
-7.5047 4.4545 -3.0069
-7.4473 4.4825 -2.9947
-7.3850 4.5070 -2.9805
-7.3331 4.5373 -2.9706
-7.2980 4.5777 -2.9676
-7.2466 4.6078 -2.9580
-7.2015 4.6414 -2.9511
-7.1540 4.6731 -2.9432
-7.1149 4.7102 -2.9389
-7.0937 4.7590 -2.9422
-7.0722 4.8077 -2.9455
-7.0706 4.8703 -2.9574
-7.0506 4.9206 -2.9617
-7.0496 4.9845 -2.9742
-7.0496 5.0496 -2.9874
-0.4596 0.3426 -0.1530
-0.4287 0.3240 -0.1405
-2.7471 2.1013 -1.1629
-2.7192 2.1065 -1.1563
-0.4303 0.3420 -0.1448
-2.6081 2.0723 -1.1183
-2.5784 2.0747 -1.1107
-2.5495 2.0774 -1.1035
-0.3935 0.3332 -0.1329
-2.4704 2.0899 -1.0850
-2.4676 2.1136 -1.0896
-2.4453 2.1206 -1.0853
-2.4258 2.1300 -1.0823
-2.3944 2.1286 -1.0737
-2.3749 2.1376 -1.0708
-2.3562 2.1470 -1.0681
-0.3746 0.3502 -0.1319
-0.3778 0.3619 -0.1355
-0.3708 0.3597 -0.1332
-2.2818 2.2111 -1.0645
-2.2668 2.2237 -1.0638
-2.2531 2.2376 -1.0638
-2.2453 2.2574 -1.0668
-2.2381 2.2778 -1.0701
-2.2333 2.3010 -1.0747
-2.2198 2.3153 -1.0750
-2.2140 2.3378 -1.0793
-2.2164 2.3692 -1.0879
-2.2172 2.3994 -1.0959
-2.2234 2.4359 -1.1068
-2.2388 2.4832 -1.1226
-2.2462 2.5222 -1.1345
-0.3379 0.3895 -0.1329
-0.3417 0.3986 -0.1362
-0.3596 0.4243 -0.1471
-0.3466 0.4143 -0.1415
-0.3441 0.4164 -0.1415
-0.3343 0.4098 -0.1375
-0.3264 0.4053 -0.1345
-0.3328 0.4183 -0.1395
-0.3270 0.4216 -0.1392
-0.3218 0.4256 -0.1392
-0.3181 0.4260 -0.1385
-0.2798 0.4275 -0.1312
-0.2788 0.4315 -0.1322
-0.2761 0.4332 -0.1322
-0.2734 0.4349 -0.1322
-0.2545 0.4463 -0.1322
-1.6560 3.3616 -1.2640
-1.6209 3.3420 -1.2524
-1.6069 3.3655 -1.2577
-1.5874 3.3779 -1.2587
-1.5531 3.3585 -1.2475
-1.5348 3.3731 -1.2495
-1.5006 3.3523 -1.2379
-1.4823 3.3666 -1.2399
-1.4605 3.3731 -1.2389
-1.4375 3.3767 -1.2369
-1.4142 3.3794 -1.2346
-1.3931 3.3871 -1.2343
-1.3716 3.3939 -1.2336
-1.3521 3.4057 -1.2349
-1.3240 3.3955 -1.2280
-1.3065 3.4124 -1.2313
-1.2882 3.4274 -1.2339
-1.2665 3.4335 -1.2333
-1.2428 3.4341 -1.2306
-1.2205 3.4381 -1.2293
-1.1984 3.4428 -1.2283
-1.1785 3.4537 -1.2296
-1.1606 3.4707 -1.2333
-1.1369 3.4706 -1.2306
-1.1167 3.4811 -1.2320
-1.0939 3.4834 -1.2303
-1.0686 3.4774 -1.2257
-1.0451 3.4767 -1.2230
-1.0264 3.4921 -1.2263
-1.0050 3.4983 -1.2263
-0.9850 3.5098 -1.2283
-0.9635 3.5158 -1.2283
-0.9385 3.5089 -1.2237
-0.9164 3.5128 -1.2230
-0.8935 3.5128 -1.2211
-0.8705 3.5128 -1.2191
-0.8494 3.5199 -1.2197
-0.8273 3.5232 -1.2191
-0.8066 3.5319 -1.2204
-0.7873 3.5478 -1.2244
-0.7644 3.5470 -1.2224
-0.7402 3.5406 -1.2184
-0.7181 3.5432 -1.2178
-0.6964 3.5475 -1.2178
-0.6741 3.5490 -1.2168
-0.6521 3.5521 -1.2164
-0.6301 3.5551 -1.2161
-0.6083 3.5589 -1.2161
-0.5871 3.5663 -1.2174
-0.5655 3.5717 -1.2181
-0.5433 3.5732 -1.2174
-0.5217 3.5793 -1.2184
-0.4996 3.5815 -1.2181
-0.4778 3.5854 -1.2184
-0.4560 3.5902 -1.2191
-0.4327 3.5826 -1.2154
-0.4116 3.5927 -1.2181
-0.3906 3.6045 -1.2214
-0.3690 3.6125 -1.2234
-0.3463 3.6091 -1.2214
-0.3236 3.6045 -1.2191
-0.3005 3.5952 -1.2151
-0.2786 3.5998 -1.2161
-0.2572 3.6099 -1.2191
-0.2355 3.6189 -1.2217
-0.2131 3.6165 -1.2204
-0.1905 3.6102 -1.2178
-0.1685 3.6151 -1.2191
-0.1464 3.6179 -1.2197
-0.1241 3.6169 -1.2191
-0.1019 3.6157 -1.2184
-0.0797 3.6163 -1.2184
-0.0575 3.6186 -1.2191
-0.0353 3.6179 -1.2187
-0.0131 3.6228 -1.2204
0.0091 3.6322 -1.2237
0.0312 3.6113 -1.2164
0.0534 3.6101 -1.2161
0.0757 3.6163 -1.2184
0.0979 3.6168 -1.2187
0.1200 3.6123 -1.2174
0.1418 3.6021 -1.2141
0.1636 3.5945 -1.2118
0.1856 3.5935 -1.2118
0.2075 3.5885 -1.2105
0.2295 3.5881 -1.2108
0.2510 3.5781 -1.2078
0.2736 3.5859 -1.2111
0.2964 3.5936 -1.2145
0.3210 3.6218 -1.2250
0.3440 3.6273 -1.2277
0.3658 3.6214 -1.2263
0.3875 3.6134 -1.2244
0.4093 3.6082 -1.2234
0.4332 3.6206 -1.2287
0.4525 3.5944 -1.2204
0.4738 3.5860 -1.2184
0.4967 3.5895 -1.2207
0.5195 3.5920 -1.2227
0.5395 3.5748 -1.2178
0.5615 3.5723 -1.2181
0.5836 3.5697 -1.2184
0.6045 3.5605 -1.2164
0.6274 3.5623 -1.2184
0.6495 3.5603 -1.2191
0.6705 3.5516 -1.2174
0.6932 3.5520 -1.2191
0.7157 3.5514 -1.2204
0.7379 3.5488 -1.2211
0.7586 3.5396 -1.2194
0.7805 3.5358 -1.2197
0.8033 3.5355 -1.2214
0.8284 3.5452 -1.2267
0.8505 3.5419 -1.2273
0.8700 3.5275 -1.2240
0.8935 3.5294 -1.2267
0.9168 3.5302 -1.2290
0.9384 3.5245 -1.2290
0.9613 3.5233 -1.2306
0.9829 3.5173 -1.2306
1.0080 3.5239 -1.2353
1.0368 3.5421 -1.2442
1.0598 3.5402 -1.2458
1.0826 3.5373 -1.2472
1.1012 3.5207 -1.2435
1.1223 3.5120 -1.2429
1.1327 3.4710 -1.2303
1.1688 3.5087 -1.2468
1.1943 3.5131 -1.2511
0.1711 0.4824 -0.1316
0.2139 0.4785 -0.1359
0.2118 0.4660 -0.1316
0.2158 0.4672 -0.1326
0.2199 0.4685 -0.1335
0.2240 0.4697 -0.1345
0.2272 0.4692 -0.1349
0.2334 0.4746 -0.1375
0.2375 0.4757 -0.1385
0.2434 0.4801 -0.1408
0.2455 0.4769 -0.1402
0.2506 0.4796 -0.1418
0.2570 0.4848 -0.1445
0.2617 0.4865 -0.1458
0.2656 0.4866 -0.1464
0.2695 0.4866 -0.1471
0.2738 0.4874 -0.1481
0.2759 0.4841 -0.1474
0.2807 0.4856 -0.1487
0.2865 0.4888 -0.1507
0.2909 0.4895 -0.1517
0.2935 0.4869 -0.1514
0.2940 0.4810 -0.1497
0.2940 0.4744 -0.1478
0.2934 0.4669 -0.1454
0.3003 0.4715 -0.1481
0.3128 0.4848 -0.1544
0.3142 0.4805 -0.1534
0.3239 0.4889 -0.1577
0.3269 0.4869 -0.1577
0.3299 0.4848 -0.1577
0.3328 0.4828 -0.1577
0.3337 0.4776 -0.1563
0.3306 0.4671 -0.1527
0.3319 0.4627 -0.1517
0.3325 0.4576 -0.1504
0.3348 0.4548 -0.1501
0.3392 0.4550 -0.1511
0.3431 0.4544 -0.1517
0.3465 0.4531 -0.1520
0.3544 0.4577 -0.1550
2.0136 2.5989 -1.1031
0.3489 0.4392 -0.1487
0.3569 0.4437 -0.1517
0.3561 0.4371 -0.1497
0.3623 0.4393 -0.1517
0.3608 0.4320 -0.1494
0.3628 0.4290 -0.1491
0.3661 0.4275 -0.1494
0.3724 0.4295 -0.1514
0.3762 0.4287 -0.1520
0.3807 0.4285 -0.1530
0.3846 0.4276 -0.1537
0.3904 0.4287 -0.1554
0.3962 0.4298 -0.1570
0.4046 0.4336 -0.1600
0.4085 0.4325 -0.1606
0.4092 0.4279 -0.1596
0.4144 0.4281 -0.1610
0.4138 0.4222 -0.1593
2.3683 2.4145 -1.1362
0.4202 0.4184 -0.1600
0.4188 0.4118 -0.1580
0.4200 0.4079 -0.1573
0.4225 0.4053 -0.1573
0.4249 0.4027 -0.1573
0.4253 0.3982 -0.1563
0.4292 0.3969 -0.1570
0.4309 0.3936 -0.1567
0.4326 0.3903 -0.1563
0.4196 0.3737 -0.1491
0.4198 0.3692 -0.1481
0.4326 0.3760 -0.1530
0.4221 0.3622 -0.1471
0.4222 0.3578 -0.1461
0.4251 0.3558 -0.1464
0.4229 0.3495 -0.1445
0.4280 0.3493 -0.1458
0.4294 0.3461 -0.1454
0.4359 0.3470 -0.1474
0.4358 0.3426 -0.1464
0.4424 0.3434 -0.1484
0.4489 0.3441 -0.1504
0.4525 0.3425 -0.1511
0.4546 0.3397 -0.1511
0.4454 0.3285 -0.1461
0.4527 0.3297 -0.1484
0.4547 0.3269 -0.1484
0.4559 0.3235 -0.1481
0.4541 0.3180 -0.1464
0.4583 0.3168 -0.1474
0.4548 0.3102 -0.1451
0.4583 0.3085 -0.1458
0.4609 0.3062 -0.1461
0.4644 0.3044 -0.1468
0.4654 0.3011 -0.1464
0.4720 0.3013 -0.1484
0.4763 0.2999 -0.1494
0.4949 0.3076 -0.1563
0.4943 0.3030 -0.1554
0.4889 0.2955 -0.1524
0.4907 0.2925 -0.1524
0.4877 0.2866 -0.1504
0.4894 0.2836 -0.1504
0.4895 0.2796 -0.1497
0.4863 0.2738 -0.1478
0.4904 0.2722 -0.1487
0.4979 0.2724 -0.1511
0.5037 0.2716 -0.1527
0.5095 0.2708 -0.1544
0.5086 0.2663 -0.1534
0.4944 0.2549 -0.1471
0.5152 0.2618 -0.1547
0.5151 0.2578 -0.1540
0.5218 0.2571 -0.1560
0.5174 0.2510 -0.1537
0.5181 0.2474 -0.1534
0.5188 0.2438 -0.1530
0.5117 0.2366 -0.1497
0.5294 0.2410 -0.1560
0.5232 0.2342 -0.1530
0.5022 0.2210 -0.1445
0.5122 0.2217 -0.1478
0.5153 0.2193 -0.1484
0.5166 0.2161 -0.1484
0.5257 0.2163 -0.1514
0.5271 0.2130 -0.1514
0.5257 0.2087 -0.1504
0.5331 0.2079 -0.1527
0.5344 0.2047 -0.1527
0.5365 0.2017 -0.1530
0.5386 0.1988 -0.1534
0.5283 0.1912 -0.1491
0.5402 0.1918 -0.1530
0.5475 0.1907 -0.1554
0.5425 0.1852 -0.1530
0.5570 0.1864 -0.1580
0.5438 0.1782 -0.1527
0.5368 0.1722 -0.1497
0.5343 0.1677 -0.1484
0.5398 0.1659 -0.1501
0.5399 0.1623 -0.1497
0.5508 0.1620 -0.1534
0.5455 0.1567 -0.1511
0.5437 0.1526 -0.1501
0.5528 0.1515 -0.1530
0.5455 0.1459 -0.1501
0.5473 0.1428 -0.1504
0.5582 0.1421 -0.1540
0.5564 0.1379 -0.1530
0.5673 0.1370 -0.1567
0.5653 0.1329 -0.1557
0.5698 0.1303 -0.1570
0.5688 0.1264 -0.1563
0.5677 0.1225 -0.1557
0.5731 0.1200 -0.1573
0.5664 0.1149 -0.1547
0.5652 0.1110 -0.1540
0.5696 0.1083 -0.1554
0.5656 0.1039 -0.1537
0.5663 0.1004 -0.1537
0.5650 0.0966 -0.1530
0.5656 0.0932 -0.1530
0.5671 0.0898 -0.1534
0.5704 0.0868 -0.1544
0.5737 0.0837 -0.1554
0.5752 0.0804 -0.1557
0.5813 0.0776 -0.1577
0.5733 0.0729 -0.1547
0.5747 0.0695 -0.1550
0.5910 0.0679 -0.1606
0.5886 0.0640 -0.1596
0.5937 0.0609 -0.1613
0.5894 0.0567 -0.1596
0.5841 0.0526 -0.1577
0.6013 0.0505 -0.1636
0.6016 0.0468 -0.1636
0.5934 0.0425 -0.1606
0.5936 0.0388 -0.1606
0.5863 0.0347 -0.1580
0.5847 0.0310 -0.1573
0.5829 0.0273 -0.1567
0.5897 0.0240 -0.1590
0.5832 0.0202 -0.1567
0.5852 0.0166 -0.1573
0.5797 0.0129 -0.1554
0.5731 0.0092 -0.1530
0.5741 0.0057 -0.1534
0.5836 0.0023 -0.1567
0.5864 -0.0013 -0.1577
0.5855 -0.0049 -0.1573
0.5845 -0.0085 -0.1570
0.5882 -0.0121 -0.1583
0.5890 -0.0158 -0.1587
0.5908 -0.0194 -0.1593
0.5822 -0.0228 -0.1563
0.5934 -0.0268 -0.1603
0.5885 -0.0302 -0.1587
0.5902 -0.0339 -0.1593
0.5937 -0.0378 -0.1606
0.5944 -0.0415 -0.1610
0.5932 -0.0450 -0.1606
0.5948 -0.0488 -0.1613
0.5964 -0.0526 -0.1620
0.5951 -0.0562 -0.1616
0.5919 -0.0596 -0.1606
0.5906 -0.0631 -0.1603
0.5874 -0.0664 -0.1593
0.5851 -0.0698 -0.1587
0.5884 -0.0739 -0.1600
0.5861 -0.0772 -0.1593
0.5856 -0.0808 -0.1593
0.5851 -0.0844 -0.1593
0.5836 -0.0879 -0.1590
0.5831 -0.0915 -0.1590
0.5825 -0.0950 -0.1590
0.5800 -0.0983 -0.1583
0.5720 -0.1006 -0.1557
0.5667 -0.1033 -0.1540
0.5642 -0.1064 -0.1534
0.5914 -0.1151 -0.1633
0.5638 -0.1135 -0.1537
0.5668 -0.1177 -0.1550
0.5614 -0.1203 -0.1534
0.5597 -0.1235 -0.1530
0.5728 -0.1300 -0.1580
0.5619 -0.1312 -0.1544
0.5574 -0.1338 -0.1530
0.5749 -0.1416 -0.1596
0.5685 -0.1438 -0.1577
0.5804 -0.1505 -0.1623
0.5786 -0.1538 -0.1620
0.5694 -0.1552 -0.1590
0.5703 -0.1592 -0.1596
0.5711 -0.1632 -0.1603
0.5728 -0.1674 -0.1613
0.5745 -0.1717 -0.1623
0.5698 -0.1742 -0.1610
0.5733 -0.1791 -0.1626
0.5631 -0.1798 -0.1593
0.5629 -0.1835 -0.1596
0.5654 -0.1881 -0.1610
0.5624 -0.1910 -0.1603
0.5595 -0.1938 -0.1596
0.5583 -0.1973 -0.1596
0.5464 -0.1969 -0.1557
0.5505 -0.2022 -0.1577
0.5492 -0.2056 -0.1577
0.5515 -0.2102 -0.1590
0.5511 -0.2140 -0.1593
0.5515 -0.2180 -0.1600
0.5343 -0.2152 -0.1540
0.5400 -0.2212 -0.1567
0.5465 -0.2278 -0.1596
0.5460 -0.2315 -0.1600
0.5393 -0.2326 -0.1580
0.5414 -0.2374 -0.1593
0.5356 -0.2388 -0.1577
0.5281 -0.2394 -0.1554
0.5266 -0.2427 -0.1554
0.5268 -0.2467 -0.1560
0.5381 -0.2559 -0.1610
0.5331 -0.2576 -0.1596
0.5290 -0.2596 -0.1587
0.5248 -0.2616 -0.1577
0.5207 -0.2636 -0.1567
0.5174 -0.2659 -0.1560
0.5157 -0.2691 -0.1560
0.5166 -0.2735 -0.1570
0.5191 -0.2789 -0.1587
0.5223 -0.2848 -0.1606
0.5106 -0.2826 -0.1567
0.5080 -0.2852 -0.1563
0.5055 -0.2879 -0.1560
0.5004 -0.2891 -0.1547
0.4970 -0.2912 -0.1540
0.4952 -0.2943 -0.1540
0.4934 -0.2973 -0.1540
0.4932 -0.3013 -0.1547
0.4905 -0.3038 -0.1544
0.4814 -0.3024 -0.1514
0.4899 -0.3118 -0.1557
0.4888 -0.3153 -0.1560
0.4956 -0.3240 -0.1596
0.4841 -0.3208 -0.1557
0.4774 -0.3206 -0.1537
0.4746 -0.3230 -0.1534
0.4750 -0.3275 -0.1544
0.4738 -0.3310 -0.1547
0.4725 -0.3344 -0.1550
0.4573 -0.3281 -0.1494
0.4499 -0.3270 -0.1471
0.4640 -0.3414 -0.1540
0.4619 -0.3442 -0.1540
0.4575 -0.3454 -0.1530
0.4599 -0.3516 -0.1550
0.4472 -0.3464 -0.1504
0.4473 -0.3509 -0.1514
0.4451 -0.3536 -0.1514
0.4430 -0.3563 -0.1514
0.4437 -0.3614 -0.1527
0.4437 -0.3659 -0.1537
0.4414 -0.3686 -0.1537
0.4406 -0.3725 -0.1544
0.4405 -0.3770 -0.1554
0.4331 -0.3754 -0.1530
0.4322 -0.3793 -0.1537
0.4271 -0.3795 -0.1524
0.4247 -0.3821 -0.1524
0.4182 -0.3809 -0.1504
0.4102 -0.3784 -0.1478
0.4086 -0.3815 -0.1481
0.4069 -0.3847 -0.1484
0.4039 -0.3865 -0.1481
0.4070 -0.3942 -0.1507
0.4127 -0.4046 -0.1547
0.4068 -0.4038 -0.1530
0.4010 -0.4030 -0.1514
0.3965 -0.4034 -0.1504
0.3887 -0.4005 -0.1478
0.3823 -0.3988 -0.1458
0.3779 -0.3991 -0.1448
0.3800 -0.4062 -0.1471
0.3794 -0.4106 -0.1481
0.3884 -0.4254 -0.1540
0.3782 -0.4194 -0.1501
0.3705 -0.4161 -0.1474
0.3692 -0.4198 -0.1481
0.3648 -0.4199 -0.1471
0.3622 -0.4221 -0.1471
0.3584 -0.4229 -0.1464
0.3588 -0.4287 -0.1481
0.3574 -0.4323 -0.1487
0.3596 -0.4403 -0.1514
0.3563 -0.4418 -0.1511
0.3482 -0.4374 -0.1481
0.3449 -0.4388 -0.1478
0.3381 -0.4357 -0.1454
0.3360 -0.4385 -0.1458
0.3374 -0.4458 -0.1481
0.3312 -0.4433 -0.1461
0.3336 -0.4522 -0.1491
0.3325 -0.4565 -0.1501
0.3269 -0.4547 -0.1484
0.3318 -0.4674 -0.1530
0.3245 -0.4633 -0.1504
0.3363 -0.4861 -0.1593
0.3307 -0.4843 -0.1577
0.3389 -0.5027 -0.1646
0.3231 -0.4860 -0.1567
0.2987 -0.4557 -0.1431
0.2985 -0.4615 -0.1448
0.2992 -0.4689 -0.1471
0.2938 -0.4667 -0.1454
0.2950 -0.4749 -0.1481
0.2950 -0.4815 -0.1501
0.2936 -0.4857 -0.1511
0.2710 -0.4552 -0.1378
0.2847 -0.4844 -0.1491
0.2783 -0.4805 -0.1468
0.2782 -0.4871 -0.1487
0.2738 -0.4863 -0.1478
0.2727 -0.4913 -0.1491
0.2747 -0.5020 -0.1527
0.2630 -0.4880 -0.1464
0.2596 -0.4887 -0.1461
0.2574 -0.4920 -0.1468
0.2531 -0.4910 -0.1458
0.2531 -0.4985 -0.1481
0.2496 -0.4992 -0.1478
0.2415 -0.4906 -0.1438
0.2368 -0.4886 -0.1425
0.2334 -0.4892 -0.1421
0.2275 -0.4847 -0.1398
0.2253 -0.4878 -0.1405
0.2220 -0.4883 -0.1402
0.2182 -0.4880 -0.1395
0.2167 -0.4927 -0.1408
0.2137 -0.4940 -0.1408
0.2118 -0.4979 -0.1418
0.2113 -0.5053 -0.1441
0.2188 -0.5318 -0.1537
0.2080 -0.5148 -0.1468
0.2055 -0.5179 -0.1474
0.2058 -0.5279 -0.1507
0.2019 -0.5274 -0.1501
0.1990 -0.5295 -0.1504
0.1958 -0.5307 -0.1504
0.1932 -0.5337 -0.1511
0.1902 -0.5357 -0.1514
0.1894 -0.5440 -0.1540
0.1864 -0.5460 -0.1544
0.1834 -0.5481 -0.1547
0.1809 -0.5519 -0.1557
0.1757 -0.5476 -0.1537
0.1698 -0.5406 -0.1507
0.1642 -0.5344 -0.1481
0.1609 -0.5354 -0.1481
0.1576 -0.5364 -0.1481
0.1535 -0.5346 -0.1471
0.1500 -0.5346 -0.1468
0.1469 -0.5365 -0.1471
0.1434 -0.5364 -0.1468
0.1418 -0.5437 -0.1491
0.1390 -0.5464 -0.1497
0.1354 -0.5463 -0.1494
0.1320 -0.5471 -0.1494
0.1284 -0.5470 -0.1491
0.1231 -0.5395 -0.1461
0.1219 -0.5495 -0.1494
0.1188 -0.5511 -0.1497
0.1140 -0.5454 -0.1474
0.1108 -0.5470 -0.1478
0.1078 -0.5495 -0.1484
0.1045 -0.5502 -0.1484
0.1009 -0.5499 -0.1481
0.0970 -0.5477 -0.1471
0.0940 -0.5501 -0.1478
0.0901 -0.5479 -0.1468
0.0866 -0.5475 -0.1464
0.0831 -0.5471 -0.1461
0.0797 -0.5476 -0.1461
0.0764 -0.5481 -0.1461
0.0730 -0.5485 -0.1461
0.0696 -0.5490 -0.1461
0.0660 -0.5475 -0.1454
0.0626 -0.5470 -0.1451
0.0591 -0.5464 -0.1448
0.0559 -0.5486 -0.1454
0.0524 -0.5471 -0.1448
0.0489 -0.5465 -0.1445
0.0455 -0.5458 -0.1441
0.0421 -0.5461 -0.1441
0.0387 -0.5454 -0.1438
0.0355 -0.5475 -0.1445
0.0320 -0.5449 -0.1435
0.0286 -0.5441 -0.1431
0.0253 -0.5452 -0.1435
0.0219 -0.5454 -0.1435
0.0184 -0.5417 -0.1421
0.0140 -0.5117 -0.1316
0.0114 -0.5306 -0.1382
0.0085 -0.5448 -0.1431
0.0052 -0.5449 -0.1431
0.0018 -0.5449 -0.1431
-0.0015 -0.5449 -0.1431
-0.0049 -0.5468 -0.1438
-0.0082 -0.5477 -0.1441
-0.0116 -0.5476 -0.1441
-0.0149 -0.5475 -0.1441
-0.0183 -0.5484 -0.1445
-0.0217 -0.5492 -0.1448
-0.0251 -0.5490 -0.1448
-0.0285 -0.5489 -0.1448
-0.0318 -0.5477 -0.1445
-0.0351 -0.5475 -0.1445
-0.0386 -0.5483 -0.1448
-0.0419 -0.5480 -0.1448
-0.0452 -0.5468 -0.1445
-0.0487 -0.5484 -0.1451
-0.0523 -0.5509 -0.1461
-0.0560 -0.5534 -0.1471
-0.0598 -0.5577 -0.1487
-0.0634 -0.5583 -0.1491
-0.0668 -0.5579 -0.1491
-0.0702 -0.5575 -0.1491
-0.0736 -0.5570 -0.1491
-0.0778 -0.5622 -0.1511
-0.0805 -0.5561 -0.1491
-0.0840 -0.5565 -0.1494
-0.0877 -0.5579 -0.1501
-0.0911 -0.5573 -0.1501
-0.0936 -0.5512 -0.1481
-0.0979 -0.5561 -0.1501
-0.1028 -0.5639 -0.1530
-0.1054 -0.5586 -0.1514
-0.1085 -0.5561 -0.1507
-0.1119 -0.5554 -0.1507
-0.1140 -0.5483 -0.1484
-0.1174 -0.5475 -0.1484
-0.1211 -0.5487 -0.1491
-0.1251 -0.5507 -0.1501
-0.1285 -0.5499 -0.1501
-0.1289 -0.5362 -0.1454
-0.1361 -0.5519 -0.1514
-0.1332 -0.5254 -0.1421
-0.1530 -0.5612 -0.1560
-0.1606 -0.5758 -0.1616
-0.1584 -0.5538 -0.1540
-0.1612 -0.5510 -0.1534
-0.1657 -0.5537 -0.1547
-0.1677 -0.5481 -0.1530
-0.1724 -0.5516 -0.1547
-0.1747 -0.5469 -0.1534
-0.1781 -0.5458 -0.1534
-0.1700 -0.5097 -0.1405
-0.1743 -0.5123 -0.1418
-0.1769 -0.5094 -0.1411
-0.1881 -0.5114 -0.1431
-0.1948 -0.5200 -0.1468
-0.1980 -0.5188 -0.1468
-0.1948 -0.5008 -0.1405
-0.1993 -0.5031 -0.1418
-0.2044 -0.5071 -0.1438
-0.2075 -0.5059 -0.1438
-0.2178 -0.5221 -0.1504
-0.2228 -0.5251 -0.1520
